ply
format ascii 1.0
element vertex 704
property float x
property float y
property float z
property uchar red
property uchar green
property uchar blue
end_header
-1.3696023623634423 2.0923537574121345 3.5135391214875957 137 125 127
-2.162516149131047 1.4589938354961673 5.582204956469195 84 89 66
-1.3669782942447855 2.0779985030314503 3.542166649166631 124 112 116
-2.046686694102914 1.5256381275169633 5.338102575670363 168 191 147
-1.2850283254269343 2.1254020821367035 3.3650910329586545 215 198 204
-2.240841474152388 1.355481716813971 5.888383580956898 86 96 59
-2.0302294127426403 1.513749103496861 5.341768504278852 58 82 34
-1.2168685731488051 2.136093561048481 3.3468310467207587 110 104 104
-1.2261441038338672 2.1134937127045967 3.4305403280857996 240 231 236
-1.1233285330393543 2.1050902820146176 3.414201204903625 173 152 151
-1.0645575748905258 2.1434639892395886 3.3530606193794035 108 82 81
-1.0679098805398695 2.1297554237804914 3.373319666851452 212 185 176
-1.0518935329614074 2.1566071767983686 3.345382737312169 208 192 193
-1.0460376629024168 2.1206796631755216 3.405849108064592 144 120 118
-1.030435891861845 2.1408035766482474 3.3649966127072544 206 190 190
-0.9997722105137511 2.174750430602144 3.3091778018071936 142 127 130
-1.0182051514540398 2.1419427485697584 3.39969796175356 206 192 191
-0.9590023103547375 2.152165412886998 3.401462444302821 205 194 192
-0.93176166359148 -0.04859337687290225 3.307641184123567 196 191 197
-0.9788988811594181 2.1195028906616815 3.493163445105255 198 184 181
-0.9596453164146823 2.1256129849973853 3.4678897540610083 209 198 194
-0.9236511728547454 -0.08326026630944737 3.345066483446724 105 103 114
-1.0346800130456113 2.0043572150109883 3.7783163933481365 21 30 9
-1.2288513233937546 1.8038127636156807 4.508453389032594 60 76 40
-1.0203684478026855 2.0176140471360444 3.7614241541158435 48 52 25
-0.9189152111337267 -0.06087779376350849 3.397504058218548 197 195 200
-1.0193965769910371 2.012465010071929 3.7770485355527326 165 175 141
-1.5451913205617371 1.4071287626724016 5.765606162291411 157 179 132
-0.9207624077279852 2.121959855583803 3.4585724332294165 110 99 97
-0.9207624077279852 2.121959855583803 3.4585724332294165 110 99 97
-0.9122754377919235 -0.02002412486758082 3.4272242709793423 192 196 207
-0.9394652870130665 2.0956235593262673 3.554727268053462 90 91 77
-0.9106321715976955 2.1288857977737825 3.466429172591818 101 87 86
-0.9338251997360659 2.082583362111526 3.55628975662511 181 184 167
-1.2809421308653772 1.6905410853593095 4.882037745487228 155 181 136
-0.9122080145547146 2.1269764169066003 3.4860569970725193 196 182 179
-0.9122080145547146 2.1269764169066003 3.4860569970725193 196 182 179
-0.9760883876942574 2.0155589476320417 3.760065572247856 174 177 148
-1.4694917099528135 1.4460870243460093 5.684897942951345 67 72 49
-0.8764632701971368 2.139098705906352 3.429979747670959 200 188 190
-1.0802542409088385 1.8587830700109893 4.285674813484867 142 158 119
-1.4089636157402292 1.4367613402982642 5.671642654392665 206 209 198
-1.5992618757087196 1.1901757774097699 6.467257470403151 150 159 130
-1.1608794386038317 1.7501106613590154 4.718259264179478 62 84 45
-1.4033484121501298 1.4011155525945198 5.757411383057751 142 154 118
-1.268439599727264 1.6025554000553117 5.224026106657594 121 124 97
-0.8589620554527663 2.10438091521866 3.5486306461678496 183 173 172
-0.8448150845624848 2.1248961895284064 3.490823660369929 205 189 189
-1.306751721750699 1.521583769435526 5.402091009941697 187 174 165
-1.7284223739757567 0.9080259776385178 7.160802710366781 178 167 161
-1.19090719087385 1.6649685542388766 4.957868652905735 38 56 18
-0.8330723249086761 2.122197642151051 3.4908247412585993 216 200 200
-0.8166937170380024 2.145457499269441 3.4449633207585895 187 177 175
-1.5302578385271035 1.1651135481466721 6.461111867868249 182 179 162
-1.5570410955926208 1.120274482165366 6.584461137539896 166 171 151
-0.8859395083327763 2.0251676994307886 3.759747591661766 164 168 141
-1.0149103067337535 1.868165861055161 4.326228751357138 39 62 18
-1.0149103067337535 1.868165861055161 4.326228751357138 39 62 18
-0.7817179765187994 2.1853124648034723 3.3326224055437472 105 99 85
-1.1197841182816928 1.7073209308178854 4.791878219495616 25 47 8
-1.6098476088646718 1.0160357776626625 6.8964659179268955 81 87 61
-0.9805741025245743 1.8609210846560926 4.301127909356977 148 176 127
-1.0355266061825497 1.786872861501559 4.605727159221436 64 78 42
-0.7495451298624103 2.1850265290009188 3.343620756456945 173 165 154
-0.9585211360075209 1.85555880320287 4.303095381748876 147 174 129
-0.8035279512672152 2.0670591221309857 3.623616868473292 207 197 187
-1.2409143418899793 1.4426107663458958 5.630863182018146 151 164 144
-0.8673330603482885 1.9510732259744006 3.94772584915834 170 186 149
-0.789577582043588 2.0741492381799875 3.6249189967279087 194 173 168
-0.7759966700726376 2.0931794806287076 3.586434090906829 56 58 37
-0.717498709611735 2.1379336269943496 3.461779205891268 191 196 174
-1.461705996965811 0.9494731463265627 7.085113288366075 203 197 185
-1.4318286336896557 0.9794650443649415 6.962171840848166 50 55 33
-0.9253526721382407 1.808410393999312 4.523490467427637 171 187 151
-0.7143839058963279 2.1229059043395098 3.494535306485019 163 168 148
-1.6185374221775206 0.6613392840538439 7.951439900414196 211 183 179
-0.8197792649694171 1.9510485060342209 4.043323490432381 58 81 39
-0.722509813233282 2.0934479944772004 3.56636454166741 61 65 42
-0.722509813233282 2.0934479944772004 3.56636454166741 61 65 42
-0.6921471205273212 2.149083470527989 3.415503800859237 167 174 158
-0.7093517521576496 2.1200027842119917 3.5127250465425464 70 73 54
-0.8871826531041646 1.855131880492649 4.4197302548586705 62 80 42
-0.6745374196740338 2.163754643931998 3.3897847324955364 68 70 59
-0.7086864484953337 2.1012793547062705 3.563922609395341 187 192 152
-0.755781348370362 2.0201250269191187 3.8032981266989556 157 178 135
-0.7485262511027088 2.0173968778942215 3.7854544030005157 178 194 157
-0.6553856336362193 2.1733743304600313 3.3655713834206304 155 161 135
-1.4624604291483745 0.7492074906099774 7.659725024005358 147 133 124
-1.4624604291483745 0.7492074906099774 7.659725024005358 147 133 124
-0.7129406416204755 2.0481646070753494 3.78002925135102 188 194 158
-0.6665354049434846 2.1011614201913873 3.5582425785109604 160 170 143
-0.6498805442418425 2.1071846963657355 3.541007335715544 147 161 135
-0.6129171595228161 2.175865158778628 3.3494636304755345 172 181 162
-1.3709840111753588 0.7919827697839744 7.546061257709735 206 187 181
-0.7554442800162705 1.9437762819984583 4.1637231608349685 172 183 143
-0.6898546607160562 2.0121435671773273 3.8242663865550273 136 156 119
-1.3010827523155613 0.9135736354312972 7.2436638353715335 186 161 157
-0.632866683079932 2.1204231143236707 3.53102371973401 57 45 23
-0.8254202495829065 1.7414836788799197 4.607556732616345 140 126 117
-1.4494048254904934 0.584866791074809 8.195478476193085 203 183 176
-0.5940196783022913 2.1875534350580317 3.3626501683470265 157 169 149
-0.5993161410936426 2.1448685128929554 3.4104097563080584 150 167 133
-0.8011411499059996 1.6256218042938797 4.562878487652235 219 205 204
-0.7641200071172274 1.900873268296309 4.37993903862515 93 93 69
-0.6122938225035228 2.1189628807517975 3.535523143126031 192 184 163
-0.6541361922697059 2.013129628293477 3.847428605613388 84 94 70
-1.2293010501231751 0.8926941516079041 7.232507604618 26 5 0
-1.1317412355529537 1.1078987086111716 6.658980695272597 190 205 176
-1.1578564872207362 1.0279597262004765 6.841140105688473 211 207 195
-1.1237106178238612 1.0633505512019141 6.743728836040853 197 189 176
-1.2566017220234398 0.7687623188061499 7.570956854905843 103 89 80
-0.7111550567613187 1.9337186899823826 4.292359971763744 212 198 189
-0.7979982708404448 1.3979619785307247 4.837760929401594 213 194 190
-0.7508498136118302 1.6329330909886715 4.564823191960271 238 219 212
-0.767590581094684 1.4717002538321315 4.712235770876933 173 157 157
-0.767590581094684 1.4717002538321315 4.712235770876933 173 157 157
-0.7461361165675745 1.725245619733288 4.596018510155528 201 184 177
-0.5821125726455421 2.1109402566930773 3.589152972896239 54 66 42
-1.083068233543194 1.050219193781243 6.745377596613134 194 192 171
-0.580810816631703 2.092560952987781 3.634379056801624 173 185 161
-0.735241905021633 1.6981227582161844 4.6256523759843065 110 86 82
-0.5472391593015897 2.1536112721238942 3.4873792046572385 140 127 110
-0.724496098201901 1.7085845542848808 4.6166109978103345 229 212 205
-0.622678712766871 2.0206411068134855 3.969079895989938 154 157 130
-0.53415969766377 2.175923665364912 3.4158121077031116 147 163 127
-0.67655611301211 1.9226704440231097 4.328468686489583 129 133 108
-0.5477542642376072 2.1362993082496367 3.5075080049486553 177 174 157
-0.7246550435498885 1.732386444580563 4.657013486707667 202 194 183
-0.5296251168413258 2.160518895628032 3.45045602305077 53 46 36
-0.7054108341778976 1.7634485664509125 4.619264632566135 131 148 112
-0.7052816078597005 1.7475561597910807 4.639547865099874 53 57 34
-0.7022733278215426 1.5760557747957706 4.634411967640803 221 202 196
-0.6348057669598622 1.9517865512597485 4.222525401625883 229 237 226
-0.7096622847120503 1.4177200369695013 4.7570521761004585 109 83 84
-0.6851955246687759 1.7578732719786527 4.6332686285174765 24 41 9
-0.6798625155612016 1.7677306401605906 4.610402773569789 145 162 130
-0.6853149791254814 1.6936218262902 4.67122506668159 216 202 189
-0.624359188276056 1.9391798992719191 4.29563316011773 211 198 189
-0.69209100879621 1.437394437300702 4.765284308267959 114 89 85
-0.6563087682458171 -0.3557363813187943 4.525180671971366 90 92 107
-0.6875180889744774 1.377794411430362 4.761463774531259 236 218 214
-0.6580016264815024 1.4950801854113855 4.684021023460514 236 220 220
-0.6076172805879501 1.9087134020283345 4.332013963314008 157 173 136
-0.6343218440784552 1.8261046555791327 4.539398616910642 67 77 43
-0.6622657737785498 1.4596299872127985 4.741817893130996 232 213 209
-0.6608029802055576 1.4588816301296308 4.73777355472612 232 213 209
-0.6634529412936581 1.4485818725967305 4.775373715687977 66 42 38
-0.6094642030363346 1.8886293000181915 4.3976656787847395 153 171 131
-0.49546741082553225 2.1304912358333814 3.6076135322627416 210 212 188
-0.6472157886865839 1.7196518312545745 4.73804357656801 203 196 178
-0.637002126820344 1.554041741802295 4.674472709472113 239 220 213
-0.637002126820344 1.554041741802295 4.674472709472113 239 220 213
-0.6613439699274976 1.1426735739854785 4.867381517341205 206 187 181
-0.6856946098432525 1.0572755273634666 5.155856785498968 235 210 205
-0.5806015295727067 1.8985814850226155 4.378391807786779 208 194 181
-0.6343054619824764 1.2883697104282794 4.791281206679876 161 141 132
-0.6317599073332101 1.2738723556691356 4.7993915502134445 227 208 201
-0.6146867463795186 1.608085820319122 4.720997069400825 235 215 206
-0.6201620658963634 1.2991958563630623 4.798989081214518 227 204 196
-0.6129485819431748 1.4460710716773326 4.749369659809356 226 205 200
-0.6189995185562037 1.3460462850576214 4.823536693903294 229 208 203
-0.5704977707389477 1.8667991695586552 4.474350816971464 60 77 43
-0.5573203099995464 1.8924334247428387 4.390193008689874 201 184 176
-0.5573203099995464 1.8924334247428387 4.390193008689874 201 184 176
-0.5639596430288046 1.8752084993909264 4.455563268820275 152 165 135
-0.5939889661710384 1.5809574065209298 4.7153136206969535 137 119 109
-1.108316570976465 0.11373586450553552 8.885912706841346 198 170 167
-0.6445614057609289 1.0561887644334247 5.192703362792464 245 220 213
-0.6407837920456537 1.068366002372087 5.165035104765122 235 210 206
-0.4366233369163189 2.168581346591762 3.5259187971516077 84 74 62
-0.5833111884442939 1.4111838139906727 4.770307274223905 55 35 28
-0.5699269328184756 1.683523181135399 4.709724065725827 58 44 41
-0.5734853237618672 1.598961596334011 4.737567847484657 205 185 178
-0.5885518724051398 -0.3919113027737007 4.869416004321653 94 94 106
-0.5837345746917355 1.298085394766116 4.834217382382162 243 220 212
-0.5840415444901409 1.3256880439202932 4.8443768736205675 123 96 87
-0.583593577373357 1.3449022623218332 4.841169356401859 154 129 124
-0.564057237145065 1.5827852522492567 4.739824365148438 204 185 179
-0.5629672391783018 1.3832479315392425 4.755701131848874 235 216 210
-0.40509544491611543 2.181035746999698 3.433726149568412 154 170 134
-0.5564946369508683 1.529470817714736 4.720224194574699 225 205 198
-0.4910758835539051 1.9831189457133076 4.173513815119342 179 169 160
-0.5174363799469225 1.8766981826960407 4.442170581780398 200 183 176
-0.6036213372267833 1.0614707350730122 5.196474346490451 240 215 211
-0.5528620433682243 1.5813212844001903 4.763671638160772 72 52 45
-0.5528620433682243 1.5813212844001903 4.763671638160772 72 52 45
-0.6047626273872039 1.0363629390105644 5.218334341923987 67 44 38
-0.5906053348051459 1.0845096960964136 5.176197769381814 142 113 109
-0.5171014022598351 1.8448067364588494 4.550931475856729 20 42 4
-0.5846034266820422 0.9723242551136165 5.237357560732388 243 228 223
-0.48830487847799875 1.8932237665951757 4.397935806400966 144 173 125
-0.5069261896438387 1.8073683640678386 4.58380103153614 144 169 127
-0.5069261896438387 1.8073683640678386 4.58380103153614 144 169 127
-0.5328391646080849 1.3103857991320156 4.834082712807169 237 224 218
-0.514210675068942 1.5330556802101893 4.741953426853012 225 205 198
-0.5150991558579084 1.6101669083424028 4.7512369608977405 74 55 57
-0.5628390583879019 1.0320238751722943 5.223464288291692 234 211 205
-0.5105101212823087 1.6783961652519641 4.743933934235798 208 190 186
-0.5595375161456227 1.1048785547683573 5.250595263104636 214 187 180
-0.5030999380721088 1.6985948996971676 4.7335562038096795 228 209 205
-0.46806196102044123 1.8715955945284497 4.438104845903753 86 93 62
-0.5011548708030888 1.4489552809723445 4.764176355190167 228 208 201
-0.497648217040421 1.380797515153743 4.760805365320785 221 202 198
-0.49938031255934257 1.3033857821247128 4.814360361699446 229 218 214
-0.4931220611598819 1.4149401445621717 4.782941727853046 58 37 34
-0.4714136193774432 1.8106377028189569 4.59502531778637 141 168 125
-0.5392592624443258 1.0451096130433923 5.270909939567608 240 217 211
-0.39035389010503774 2.0897436167034638 3.83759076084721 218 201 191
-0.4833951655773416 1.7571986735795708 4.761986178496969 184 171 162
-0.38431828212647134 2.1125514771197 3.803545995763926 202 186 170
-0.425422142216355 1.9728681858001655 4.224736864396838 95 94 74
-0.4635511255781015 1.7966980288948533 4.633322103386043 167 184 139
-0.4635511255781015 1.7966980288948533 4.633322103386043 167 184 139
-0.46454864436202103 1.6040227305174568 4.752880985657121 217 202 197
-0.5051340034241532 1.1537605758689378 5.20235667511765 237 210 203
-0.4654954195451545 1.502909593820987 4.808661441819531 103 79 69
-0.37910829192027323 2.032459809882497 3.93692408293127 152 174 127
-0.34224275849786046 2.148473551892513 3.6193327384104577 78 89 59
-0.3582399087501239 2.0937240243371305 3.809571369973795 196 176 169
-0.40548173313733166 1.9260063380364436 4.329580506334771 149 168 122
-0.3435728455591898 2.1228106107397826 3.721836938093423 42 55 25
-0.44241014193785516 1.500110386711986 4.802611726392788 101 78 72
-0.34850111776749815 2.0667946400516737 3.852091799597282 199 193 171
-0.42319644062544576 1.7859706659893058 4.7096471252015935 153 167 134
-0.31063711961987595 2.1834106756020186 3.5266249334589506 43 59 22
-0.42355715952570683 1.539751186523877 4.820195591530556 204 185 178
-0.30695795895111705 2.182466197309048 3.5065822275254432 161 176 137
-0.42138071730797855 1.503942998602314 4.8222726513433365 90 66 62
-0.45919151348385934 1.0769312594472233 5.298548629929508 99 73 76
-0.3888813610789527 1.8609124196992095 4.503966953145522 156 178 139
-0.413266517444718 1.461772299667879 4.806055447225629 207 189 185
-0.448278627166053 1.1552843839905778 5.261473595281347 238 214 210
-0.4056031422469506 1.7547168532570978 4.794328677955799 80 70 60
-0.3664962324414976 1.9199944267479032 4.367370051038995 38 62 14
-0.4038296910659831 1.5152656387180556 4.8175730045248 252 231 228
-0.43567117178307013 1.2084271012214234 5.227878555918635 232 208 206
-0.32713992967450983 2.0624076377957445 3.930195429925921 134 142 105
-0.32713992967450983 2.0624076377957445 3.930195429925921 134 142 105
-0.40214731268544235 1.487199964815611 4.835364494581543 229 209 202
-0.3743629807585952 1.8679352191407779 4.5135371508675854 52 72 37
-0.39243527341327167 1.7746696182261714 4.745452027284337 175 198 154
-0.2881332005432647 2.1784474195432844 3.538401200406055 46 64 22
-0.3128218060296922 2.0850299263177106 3.861689774835307 213 190 182
-0.42627145479340106 1.1354751823331029 5.279937511243152 247 223 221
-0.3889333432416012 1.5626444475623307 4.847158779207663 236 221 216
-0.3909137118694547 1.5525399263987325 4.872894908278933 67 52 47
-0.2866537656143341 2.141623019924159 3.6482936236580237 177 184 150
-0.40232887298191383 1.2693164620729938 5.246679883402447 238 218 217
-0.2932267139271664 2.0746870125986234 3.9385151125318334 59 43 28
-0.34015480721833713 1.8341278552010534 4.5942730384518375 171 196 157
-0.34015480721833713 1.8341278552010534 4.5942730384518375 171 196 157
-0.38353051733755733 1.1750929287408294 5.2359603554727325 100 76 72
-0.2545274950055662 2.141143267440253 3.6290241843694324 49 60 26
-0.2545274950055662 2.141143267440253 3.6290241843694324 49 60 26
-0.3042174516800147 1.9151007114410605 4.365335591183749 149 172 126
-0.36007283019931857 1.060626513312305 5.316039295298995 117 91 90
-0.34969622325206495 1.191353362066458 5.25743450429833 208 187 184
-0.2835199031576064 1.9548605738238116 4.271135338176276 108 124 88
-0.2835199031576064 1.9548605738238116 4.271135338176276 108 124 88
-0.44704438939057195 1.0758444476336457 6.798394782244335 217 202 197
-0.44704438939057195 1.0758444476336457 6.798394782244335 217 202 197
-0.3462021478274191 1.0397611385286933 5.308102275152855 224 200 196
-0.498112230894688 0.7822135988971914 7.64136404327732 90 65 58
-0.49358353238795893 0.8027933399555139 7.589190518549095 209 184 177
-0.2591328305326729 2.0631336784634793 3.9848709884960463 195 194 163
-0.3422331681232031 1.1451935421577824 5.280317379150496 86 68 68
-0.3422331681232031 1.1451935421577824 5.280317379150496 86 68 68
-0.22792488344690828 2.165316818842944 3.580930597176727 148 165 129
-0.32690412860001694 1.0913218849420983 5.298749103829502 200 180 181
-0.4637673350348028 0.8222972783975068 7.55821378778324 208 183 178
-0.3071265265146366 1.4592998073575802 5.003604379957274 242 220 222
-0.29069110059817593 1.6051894206783262 4.811125436790993 6 30 4
-0.29069110059817593 1.6051894206783262 4.811125436790993 6 30 4
-0.31906024110312947 1.0240836184433872 5.360043835374911 235 214 213
-0.2730795323794506 1.7694098554457545 4.767740382313199 129 157 109
-0.40054286628844804 0.974531467347821 7.128500080684158 203 184 177
-0.46232776332128933 0.47315544550894495 8.468506754834248 216 189 182
-0.2824356527307305 1.2156942035698106 5.265912486668485 152 128 124
-0.41721113646748065 0.7126870142228254 7.831152764266292 211 192 185
-0.45135640660210496 0.4110292835743416 8.585924902200682 217 190 181
-0.3990049684743671 0.7972566660923478 7.6205205917069465 221 198 190
-0.21679204494811208 1.9716529636665518 4.220823313603824 132 160 111
-0.47578793992244345 -0.5401986042062599 9.54712470805191 79 56 62
-0.2547564752411488 1.3466497069892498 5.165262810830109 84 68 69
-0.2517434720661792 1.2701181224075422 5.262773511733538 119 96 88
-0.2517434720661792 1.2701181224075422 5.262773511733538 119 96 88
-0.3237305100155702 1.0896770918417316 6.78359231616845 222 204 192
-0.25018472374833134 1.2937662651860078 5.244537090467715 232 209 203
-0.2543604624370974 1.045649730756607 5.378596474702414 226 206 205
-0.23351858936097433 1.3239380978773492 5.258310419957695 211 190 187
-0.22321654900784926 1.3814748455332269 5.179253350413085 70 56 56
-0.22321654900784926 1.3814748455332269 5.179253350413085 70 56 56
-0.19506840414656731 1.8490590528078632 4.6044828145319325 160 187 142
-0.22179872123990632 1.1743712605032204 5.29967276216423 222 203 199
-0.1820224252469416 1.9009722936427962 4.40113869357378 70 102 55
-0.21791762455524666 1.328043657444403 5.278603239109143 238 217 212
-0.17888596046134778 1.927536870827481 4.384283478711261 59 83 35
-0.19290366226428188 1.8081193348379063 4.739420329998407 212 200 184
-0.1634579364003702 2.0410202524527468 4.052855682697005 207 199 186
-0.26153730580731327 1.0921317601120928 6.772664589179265 175 163 147
-0.2520327449240653 1.0575298234335038 6.9212120397558685 213 193 186
-0.2520327449240653 1.0575298234335038 6.9212120397558685 213 193 186
-0.15911431201153575 1.9260682298871512 4.392790711254274 140 168 117
-0.1655136373168996 1.8459019351825305 4.655078201762817 172 197 157
-0.18464063031018818 1.4002064418508418 5.230452884217904 105 91 90
-0.3016108526049153 0.40857612903617563 8.635219364362074 197 173 169
-0.28599167388513014 0.5184855778320453 8.366284505243863 195 172 164
-0.28599167388513014 0.5184855778320453 8.366284505243863 195 172 164
-0.17330684033810617 1.4102467773248026 5.199837084592867 66 50 50
-0.34327547131040387 -0.07331442688139365 10.328256437559887 187 152 146
-0.17194757438372502 1.26528926879132 5.316853717695844 88 65 59
-0.20628543310196326 1.200072356497266 6.441014913174168 225 198 177
-0.20628543310196326 1.200072356497266 6.441014913174168 225 198 177
-0.13595335000069644 1.9174111395557658 4.4068372130582425 144 173 127
-0.1970313902332976 1.2211432310009265 6.398527919749487 173 172 144
-0.14791572006184125 1.5780075194640164 5.0957472174654965 63 62 44
-0.21968520848267703 0.8085080104048179 7.608505091945957 196 168 164
-0.1256603818132489 1.9060180034493577 4.422552672862889 18 45 0
-0.20211225019627213 0.8505124007789037 7.4401215827239335 58 29 25
-0.1085632486797326 1.9500518665298276 4.41676962385332 119 145 100
-0.10794917430739097 1.815561439472099 4.782898428829044 179 204 162
-0.18041317095599638 0.6052752007650203 8.189209492908278 215 188 181
-0.23626451559456502 -0.24810662211492143 10.877933337044796 114 86 75
-0.1856699753784749 0.4377783987622579 8.625910355116472 215 188 181
-0.15021723777701815 0.9487826203135364 7.270335501904743 227 204 198
-0.2152140536702489 -0.28386436920489927 10.91152929538024 178 149 141
-0.18084571350872175 -0.8501474389646072 9.82611600819063 94 73 78
-0.08743469463041509 1.7629767865997468 5.028927607765567 37 46 17
-0.0866180938262021 1.6619442926370487 5.189676821449582 136 152 123
-0.10797031307366735 0.8135683902842298 7.723286217893043 202 181 176
-0.09490256092311268 0.9391514701614807 7.2972963264729565 215 192 186
-0.09722024532227992 0.8700967656104253 7.515326791533976 133 114 108
-0.06549199350989157 1.7079203352071761 5.101876084230174 132 160 112
-0.10414354458371067 0.45976731403219906 8.560586856803369 195 170 163
-0.09521700297681734 0.2795190678483041 9.006726024061601 213 179 170
-0.1198514225874624 -0.5176126388784044 11.666759159675374 182 153 147
-0.05204834756756273 1.6364046756716044 5.189929349196467 155 167 143
-0.05204834756756273 1.6364046756716044 5.189929349196467 155 167 143
-0.03878273170791998 2.0589860534677547 3.9548361696110517 53 68 37
-0.032844872891687096 2.180256678671614 3.616582190791172 29 52 10
-0.07296848252031891 0.08231527758608956 9.702405663639011 211 189 178
-0.03006815375640959 2.004562493685422 4.129726103548994 152 178 143
-0.03374304291344008 1.7564484705027428 5.011570930980522 132 157 115
-0.05227943800664132 0.00560705732930312 10.134605363172463 194 167 158
-0.026160870728903603 1.3277956534904876 6.161019576865888 61 72 42
-0.01393474977114446 1.5371163843991824 5.550490461063275 86 113 68
-0.01393474977114446 1.5371163843991824 5.550490461063275 86 113 68
-0.011192299637368482 1.7913505821884057 4.937254157151359 65 81 36
-0.018195503523959274 0.6152224600735889 8.203605073084635 130 99 94
-0.0027083987706563633 -0.420880982639923 11.488108759160825 169 136 129
0.0027879084657030065 1.774716932661817 4.987812860311747 135 152 107
0.003443355672382958 2.1306034749191425 3.75334336497966 162 175 132
0.015491160777988724 0.5611354342343602 8.400298530739878 141 108 101
0.010720856151806528 1.4800994361908135 5.663776667555568 171 199 159
0.020108919033479493 0.4473156707076178 8.670959366033419 209 180 172
0.014332767595254111 1.5553128564936918 5.53068684225783 24 46 8
0.04794858274476289 1.1018373325971724 6.844813678793027 217 199 189
0.09791803890697892 -0.024475736641795587 10.312086309344744 207 177 167
0.047903301282462486 2.0203347882914597 4.153897060859209 17 37 2
0.07785723620865821 1.2038873456929937 6.590799727874989 195 188 169
0.06547728982174454 1.7599646384322258 5.015869606841247 144 162 124
0.0734538069271551 1.7388080432086694 5.125983486768086 69 85 49
0.0643227809801064 2.010236987143917 4.164157448230922 145 167 128
0.1078904690934348 1.2315171789017636 6.424775198222535 146 164 126
0.17108210625205358 0.04384728826764926 10.018588797242524 202 172 164
0.15706129455494014 0.29870239551476846 9.13611479054527 213 186 179
0.08863041908903493 1.7745953774967567 5.06813726772896 54 71 35
0.08792115203262613 1.9128190162140077 4.5352748418107875 77 93 54
0.12059369254670461 1.5242895858920735 5.610552533058794 145 172 127
0.10873540781088412 1.7707730494785308 5.008559086931892 154 171 137
0.08829228276249751 2.066902965776172 4.0290804586351285 58 82 46
0.2839916159938646 -0.4967640989899131 11.761458976684981 78 49 43
0.12222384577079237 1.8544077597992237 4.772363888977752 83 88 56
0.1316962216974186 1.7627670336321275 5.0715867608218845 138 160 124
0.15707118543839646 1.5940262994896426 5.446255829311696 41 64 18
0.11797230177886928 2.065010037193642 3.9923104996846295 128 156 107
0.3352938555893742 -0.29897783044489235 11.279473749376637 169 147 136
0.34474434039107954 -0.36314733558845036 11.471464841059236 81 54 45
0.17261698400690748 1.4888132931672946 5.727614170463091 71 93 47
0.17261698400690748 1.4888132931672946 5.727614170463091 71 93 47
0.15557392645724935 1.8275663054668962 4.892995642583222 92 109 75
0.13561578715932787 2.033600707081507 4.121509349165749 176 197 166
0.3649964766623367 -0.152319705986531 10.860179305066207 167 144 136
0.21751771076503354 1.249070807450031 6.451314388685334 87 90 63
0.2899996931835596 0.8185100336469842 7.8438293795374205 207 184 178
0.18046528360471983 1.8336047594714235 4.8186591121608044 165 179 146
0.1932141297162363 1.694934055109211 5.113848504653832 32 52 17
0.19402439680466568 1.7301823400001188 5.1135477323765235 152 168 139
0.18099722325954434 1.8823081652146552 4.688373813448445 163 184 145
0.25685725049769587 1.2648526342128268 6.445299603813961 201 201 175
0.7670392572179399 -2.7231676568134664 18.643936608289085 86 80 64
0.37117299335299786 0.47312074536039705 8.828555818807699 150 121 113
0.42831454465246493 0.019433736440417824 10.078672226389351 163 134 126
0.42831454465246493 0.019433736440417824 10.078672226389351 163 134 126
0.4085869580253565 0.2303331738779642 9.48737636180293 211 182 174
0.5087749437577599 -0.4730380607044339 11.814734773674454 86 65 62
0.4578613664214343 -0.05132659956421759 10.482397462906434 174 151 143
0.18548210092958553 2.025489790854164 4.210168032765708 211 190 185
0.20094999897107277 1.9610410454672353 4.454036279858614 47 61 28
0.7356252234184805 -1.9544664341569056 16.198990178021617 174 147 138
0.4538102282173933 0.118028521336279 9.887172700706655 192 165 156
0.4909073521603903 -0.04767674893267629 10.491807790481458 202 177 170
0.8906340416619393 -2.6409939113979712 18.583113508037346 196 190 168
0.5094004277834083 -0.10413221292667392 10.540341690346738 133 104 98
0.40952120768409134 0.6772689092700074 8.29533644392617 150 131 124
0.5804857013469102 -0.41329765649513367 11.672285803508634 179 152 145
0.314749751465781 1.3125796147378543 6.295305155361643 186 189 162
0.5998649499430116 -0.6556660923883163 11.776060936133447 163 144 138
0.25752698347324016 1.7977188793977363 4.999428492841405 80 102 63
0.6057519669464861 -0.9468797592686925 11.710271188007395 42 30 32
0.5733515850265503 -0.16568991328527782 11.034862690340805 196 173 165
0.5733515850265503 -0.16568991328527782 11.034862690340805 196 173 165
0.6147262659662972 -0.9915349840256145 11.668027648505314 196 192 183
0.24190552951009386 1.9307220869505393 4.574113212786074 174 176 152
0.2698098886364243 1.7463584540663761 5.087060010821219 143 171 130
0.19982500135996029 2.1505672023700164 3.772728479706957 66 79 51
0.216849955797503 2.061041316153264 4.036770330269816 235 202 193
0.6363523091258749 -0.8889922129671654 11.69796936242468 85 74 78
0.43954649457925765 0.8124001976027252 8.014841465169575 177 160 152
0.25418266117722704 1.900886260588052 4.598157413877759 154 160 132
0.5366318349169412 0.23788467643249955 9.700782087186687 166 137 129
0.6553571832734519 -0.9816659118371854 11.64834573952965 51 42 47
0.253518691916794 1.9413195719589242 4.499912260585278 83 96 68
0.5110310895172288 0.448845006940038 8.877315356271655 154 127 116
0.26654583277373006 1.9183642240914816 4.6105556446874045 142 146 121
0.4138295246680447 1.076826060383822 7.148657515835191 200 183 175
0.6806489889361257 -1.0642319050204332 11.67669356955943 229 226 221
0.4213121740094277 1.1378706405255217 6.925408468337955 212 198 189
0.7224284844686624 -0.9919086142176797 11.69907599897078 68 61 69
0.3946961426896593 1.3341034667935385 6.273086836822035 197 199 175
0.3824521317771061 1.4065763948655554 5.936804893360496 117 127 92
0.6139383714418201 0.3277177697141497 9.38851442722203 210 183 174
0.6139383714418201 0.3277177697141497 9.38851442722203 210 183 174
0.5667079643936076 0.5842821222400527 8.616041939158405 197 180 170
0.7717536623520537 -0.8977787027906137 11.713763243228653 37 32 39
0.450731420246029 1.1795697130379927 6.731800564869661 196 183 167
0.67275489901061 0.13753980532113397 9.971174070417506 199 175 163
0.7585017838541338 -0.22111762142118158 11.164498682526846 116 77 70
0.79529391673393 -1.1463056511905931 11.678842405255681 36 27 32
0.8037362112797068 -1.1053613823760926 11.763453307622928 79 73 83
0.25888843438089143 2.1431039317462544 3.7860766133031314 169 186 150
0.8070402196932809 -1.210325653716194 11.691256672917632 228 218 217
0.835458082344896 -1.2432923711456696 11.714896577884609 221 208 215
0.8227548310336944 -0.27117718721899947 11.439704638645233 172 145 136
0.3574255780631126 1.8081176913531174 4.855130532140394 146 173 130
0.3618343376418195 1.7982848474208677 4.897962400794545 146 160 125
0.31213561338521095 2.039267476810321 4.223024498909038 188 180 167
0.41108648677734877 1.5718391652821189 5.531318250885703 62 88 40
0.45372890621211986 1.381084175373187 6.100313893961016 148 176 127
0.5233642469327839 1.1591077165587333 6.851416081563056 194 177 169
0.43596690228280954 1.564642613082479 5.561772387656664 144 176 127
0.5109958031307844 1.2687607138849102 6.507897459387362 164 175 143
0.4033325319586139 1.7318830351079557 5.118115154711746 196 192 163
0.32361901671554055 2.095897193178472 4.041532877913925 157 169 131
0.32361901671554055 2.095897193178472 4.041532877913925 157 169 131
0.6060109001005775 0.9901403960949965 7.534138113752022 214 189 185
0.3584265823637075 1.965714826293495 4.457191309852755 52 54 32
0.9632064437888311 -0.6258444781441785 11.857570150895086 171 155 155
0.4201371014148804 1.7268110567060235 5.128724115665485 177 165 141
0.42035287639318175 1.7360541279196837 5.109054959245327 120 115 86
1.24806037186021 -1.852532735613531 15.003163619430799 75 72 79
0.40682971136453266 1.8234256184526185 4.876850217143827 69 76 43
0.3734858999226925 1.9574024670756485 4.451430931945696 225 205 194
0.3756238549596819 1.9855974522912987 4.437917780608866 135 143 120
0.3756238549596819 1.9855974522912987 4.437917780608866 135 143 120
0.38044902214405807 1.967301124456066 4.438262821529688 25 16 1
0.7632771513905701 0.533476253806208 8.851178127108616 209 184 177
1.0276736412469016 -0.7159149365980505 11.882452176886328 55 55 65
0.3531372631575348 2.04043057161915 4.04248153437342 211 181 173
1.3341601285690181 -2.382736771126605 15.2582623637971 36 40 41
0.3806272574935484 2.0241372889487006 4.301511795832791 41 52 20
1.04070140073205 -0.2975083826659302 11.557831968898316 98 71 62
0.5744526049961252 1.3486927526121968 6.358938716954557 215 203 191
0.5744526049961252 1.3486927526121968 6.358938716954557 215 203 191
1.3648873783843447 -2.1062749110335344 15.066550980092199 216 217 222
1.3648873783843447 -2.1062749110335344 15.066550980092199 216 217 222
1.400877169622364 -2.527979864471032 15.366218398510933 37 42 38
0.5849024085205778 1.3226124901104894 6.401853936106505 204 199 180
0.49611986931627056 1.6442041918093788 5.398224858343872 159 181 142
0.8622036302845851 0.35744813438644446 9.373691080788694 198 168 158
1.047503574944895 -0.20837025911568455 11.360036118878048 141 107 95
0.45067028120374564 1.8305485469487526 4.8700259540031166 192 184 165
0.4655636243873105 1.7801137247482492 5.023012818838515 76 94 56
0.37572324048747563 2.1289297366025655 4.051337743989246 108 118 91
1.1302462007699217 -0.5073826625432076 11.993478777439126 91 66 61
0.369986317848152 2.136967639547351 3.917062564156569 152 161 132
0.5549203932385725 1.4731832397847373 5.796141172871032 163 188 146
0.41315521484597384 2.0411177152936504 4.238229808487872 156 159 132
0.9229754489378951 0.351543037961806 9.42231079883407 197 164 155
1.5230019762841844 -1.7084315633700347 15.256708830168487 32 35 42
1.5555824402104077 -2.627505287798482 15.296758343333362 34 44 36
1.5555824402104077 -2.627505287798482 15.296758343333362 34 44 36
0.8150532912521394 0.8066452772953199 8.004718727463038 220 192 188
0.49107965183048674 1.873283445043383 4.803847589028509 184 171 155
1.5835937190241027 -2.6711166537789337 15.353332779962725 64 74 66
1.0439635409346335 0.14056291301952334 10.1167183524415 98 78 67
0.9027435789477829 0.5751153503064987 8.699765921229991 212 187 180
0.47733747023837253 1.9618515747374554 4.468326902418497 137 146 117
0.5461753428850541 1.7619524023686248 5.05144444337986 153 180 135
1.6475467814073133 -2.465360799985592 15.211090995273098 25 29 28
0.5225850037960504 1.865108923824027 4.778540990410669 197 191 175
0.5225850037960504 1.865108923824027 4.778540990410669 197 191 175
1.1070393427705236 0.1787589287802511 10.093421745023544 216 187 179
0.5264944735974104 1.8876733880147358 4.730637436967288 74 82 59
0.8575923637369232 0.9915926865677435 7.513317691014611 140 120 113
0.6611069001716278 1.5330431615794213 5.726370830579509 138 156 114
1.158601517705081 0.24490405939917062 10.01800740408494 200 176 166
0.5274227035576552 1.9371588703510816 4.547997048881592 61 74 46
1.0805492833718295 0.4005257344766009 9.305527388827073 113 95 85
0.5308842995672305 1.9260022228455318 4.556432220211109 168 187 157
0.5308842995672305 1.9260022228455318 4.556432220211109 168 187 157
0.7866514204047319 1.2238095378158695 6.736637914534243 199 199 175
0.5869620476679294 1.8033993786033988 4.947300355462955 212 199 182
0.5869620476679294 1.8033993786033988 4.947300355462955 212 199 182
0.8342191502199552 1.1409623366791801 7.027712095711035 203 195 184
1.0273365965190902 0.6839691329046255 8.53777767177181 136 111 106
1.2073995325554545 0.21251346524702752 9.996323088699786 205 178 169
0.6802179215391109 1.6031681228154178 5.583191033829969 187 174 165
0.6802179215391109 1.6031681228154178 5.583191033829969 187 174 165
0.6150665112809196 1.7656207484342143 5.0170395888362815 141 165 129
0.808437568213124 1.284971828800033 6.569340541316755 193 196 167
1.4067304601589095 -0.19582908381046718 11.375259088381451 181 153 142
1.4067304601589095 -0.19582908381046718 11.375259088381451 181 153 142
1.4364566832895593 -0.2502904931329037 11.593016704778 88 58 48
1.8862748805195657 -2.6802429414219087 15.191497576163414 38 45 37
1.2076027809049588 0.32981220916499354 9.702484321785526 101 78 64
0.8843106581387533 1.1499209632555716 7.058032861304264 123 117 101
1.597669017942311 -0.6150464930665788 12.741599252444626 127 121 99
0.5943958451279902 1.8737194017586072 4.704966865980583 164 179 150
0.5354441430216637 2.039125019406873 4.23173309253277 143 156 126
1.9595541157057599 -1.5852410780948698 15.455075542698482 110 94 94
1.9595541157057599 -1.5852410780948698 15.455075542698482 110 94 94
1.9309923938298694 -2.478404271466931 15.129005349013184 76 77 79
1.9309923938298694 -2.478404271466931 15.129005349013184 76 77 79
1.1097349195121002 0.6267848744156609 8.690231423763436 212 192 185
0.5095797054751052 2.1350521976144075 3.9828439403544107 72 76 51
0.8950875374445355 1.167642765335478 6.988625333628487 201 201 177
0.8950875374445355 1.167642765335478 6.988625333628487 201 201 177
0.8187924211243776 1.3786499558675824 6.314035763274943 198 197 167
0.5715847983247326 2.011869254237495 4.366499547129889 184 169 148
0.6209227901862128 1.882432450998655 4.737028709911489 68 83 54
2.0563560130034357 -1.5198678304761986 15.44628497124556 59 38 35
2.0468662753792843 -1.4385885206124414 15.30918547419725 142 134 123
0.5625195546361013 2.0406004206239743 4.204031378886653 158 183 141
0.6753077856729556 1.7922814894221704 4.992514462971081 140 154 121
0.6364750212135718 1.8966302831093869 4.700122069477334 148 153 131
1.4392811536770975 -3.213941074886319 10.506956194578144 116 110 122
1.1763653204821625 0.7617082738635852 8.534402450022172 205 188 180
0.744617275570879 1.6836476676651047 5.379081949572442 166 169 140
1.9982102394305437 -1.1492787496816053 14.412129764468999 76 83 67
0.5531192030835821 2.1102593220430066 3.984295305672407 179 200 159
2.145925705701653 -2.454390669830842 15.36353594380687 65 64 69
1.5870232743209791 -0.1440008889858352 11.279781961069773 179 163 150
0.6686853031748802 1.8767190619443637 4.747412624100264 46 61 32
1.8612259183564734 -0.7397680276932654 13.200703091291086 171 168 149
1.5411408687537869 0.035039987612165556 10.762776682684835 123 104 97
1.2269198643137091 0.704227447895255 8.513148514872324 207 194 186
1.2269198643137091 0.704227447895255 8.513148514872324 207 194 186
1.6162268763318497 -0.10190993224034355 11.146812307737967 100 88 76
1.6162268763318497 -0.10190993224034355 11.146812307737967 100 88 76
0.6093184376381144 2.048207629643343 4.194170738696999 149 176 131
0.9244538592405621 1.3434270845797767 6.319509674285061 160 176 137
2.2952851004754242 -1.4758556354110852 15.638799819390641 56 41 46
1.2352763616940516 0.7740727390761195 8.375292651288587 184 175 160
0.8570156449483056 1.534664776636318 5.807404212212646 96 100 77
2.3403866952521466 -1.5494884459239653 15.819665401507372 21 12 17
1.4843333767965707 0.2661074439000887 9.97415363260319 203 183 172
1.077526958815344 1.098076588401536 7.225682653559735 196 179 169
2.4625317704779057 -3.7210011849225717 16.485487539703712 42 59 40
0.7610795756450398 1.7652159420976246 5.074050500419832 64 90 53
1.7142592412901934 -0.18182215914032218 11.415112160634306 76 69 59
2.131739972216689 -0.9917439843525239 14.189237078266066 168 159 164
1.5756571772062244 0.10827161679316491 10.47523328252031 199 179 170
1.6342155369949762 0.0028870879812021044 10.849043974010312 187 167 168
0.8255383880752172 1.6541844895597992 5.47036903099108 198 190 177
0.6869881808708748 1.9242937706806897 4.535331678387796 58 88 52
0.6869881808708748 1.9242937706806897 4.535331678387796 58 88 52
2.3687809141172855 -1.4905108115308017 15.56166113044874 101 94 102
1.2885806136977238 0.755458849310452 8.430159928314016 200 187 178
0.7673140581846959 1.8094027200490015 4.9737305650851225 170 183 157
0.856358648582235 1.6440394782908618 5.514007645045318 142 133 116
1.5799768623696606 0.2695606950730939 10.101211543129265 95 85 60
1.5743071668251758 0.3283490832401322 9.96748461422038 183 169 158
0.7172920938190841 1.939785212145557 4.522387317418084 165 184 154
0.7172920938190841 1.939785212145557 4.522387317418084 165 184 154
0.7388102037516705 1.8995479977342866 4.654271131078606 40 62 24
0.8689121087209289 1.6614440370797017 5.46600975873684 189 187 166
0.7103487440528449 1.9778101718241532 4.459763990762575 54 70 41
1.3609767184436872 0.7263930675673299 8.513798032135117 201 187 176
0.6586520795910396 2.082896678614486 4.111858665456279 26 42 6
2.0518694980398653 -0.412818064039076 12.643639395020331 137 126 132
2.0209305257647503 -0.32408191998698216 12.381485949528596 141 126 129
0.8430511023471965 1.7330972734734933 5.163993494523324 167 187 150
0.8430511023471965 1.7330972734734933 5.163993494523324 167 187 150
1.0464557956594023 1.3366846264014776 6.396968880929937 203 208 178
0.7971262156458557 1.847781496850558 4.87047971741911 92 84 65
0.6740860456151805 2.0742672284769728 4.111883361174305 134 151 115
1.2187961477878066 1.0656484710510417 7.404581973643616 212 194 190
3.1439913130596246 -5.295230854711355 18.93927397535445 240 244 253
0.791835737378005 1.8891736962812085 4.724685935517748 191 184 174
2.0325571440432806 -0.25051125881412145 12.110910664170097 175 163 167
0.6691324627417468 2.1508417773209 3.974825021531412 154 167 141
0.6617254567380181 2.1499115830039677 3.927100436914163 58 63 43
0.6617254567380181 2.1499115830039677 3.927100436914163 58 63 43
0.6733452531829304 2.1183317364971725 3.977900057735687 145 170 131
0.9845168992489755 1.5600032673264914 5.787377662791338 177 183 157
0.7440507706470743 2.0205927985283805 4.350328801709 184 183 162
0.6813382723851884 2.1285692459394445 3.972928985491981 55 77 39
0.8305452973416905 1.8810156387419532 4.838345534292142 195 192 173
2.3451809045281933 -0.9301003079098191 13.63374597534746 114 112 126
0.7188009709071298 2.0404732919336523 4.174748324129546 153 166 136
0.8437297117103748 1.8486410128184274 4.890924810871775 96 94 73
2.7611079653704533 -1.9145272613523672 15.972592678663835 21 22 27
0.8909027015073577 1.7466510746963024 5.148685345272675 146 161 132
0.6999533452654236 2.1234683728516823 3.9799352900271936 164 189 150
1.4977248152494385 0.7542456965529811 8.504044991752703 200 199 194
2.8243275499804867 -1.8259390018066552 16.033805953046397 184 184 192
0.8791058858005784 1.8112402031685932 4.981381183260843 43 59 23
1.3836651621241824 0.9640999778530052 7.783010836000098 135 125 124
1.2729026264847783 1.1763547080183057 7.120819010133741 225 214 208
0.7442183081826094 2.071381624956467 4.164821537983081 157 168 136
1.1059064832353733 1.437802714506859 6.175044320639907 147 170 126
1.002486652854731 1.6235814081545574 5.578991842036027 95 112 76
1.002486652854731 1.6235814081545574 5.578991842036027 95 112 76
0.7041559330606193 2.150162458285274 3.8871833106925378 66 75 58
1.0028524413925675 1.640091014323677 5.532792607195391 165 180 149
2.857989685097474 -1.86302644983648 15.736852817034462 186 186 198
0.7181935320295522 2.136200098082436 3.9549731324311175 184 200 171
2.8849960544070132 -2.1015729327218926 15.841861717639935 42 49 55
0.8230045903836498 1.9823860799473085 4.489497705483527 191 193 172
1.0563517869735202 1.5833957467555746 5.746987044362807 179 193 158
2.0723451358733547 -0.09461843824529818 11.273541402011082 169 156 163
0.8035290214403513 2.018359781727489 4.339447509235737 190 181 176
2.942919003909316 -2.092025767375102 15.87861498051536 46 53 61
2.942919003909316 -2.092025767375102 15.87861498051536 46 53 61
0.8744091408926334 1.9119398364788813 4.689433320575389 152 163 129
2.9410954904528475 -2.204744330246149 15.756513703237962 221 228 234
2.9127600060246333 -2.4088950251383134 15.58709981972585 18 30 6
1.0411944407602531 1.6400619210139382 5.532704195829357 213 227 192
0.9524568858085942 1.8145825270877394 5.043048899335053 195 195 171
0.7459459141978734 2.1290157993205816 3.938857895228732 160 172 148
0.8814809827108235 1.9365297345262038 4.6407884076759425 108 99 90
3.642034450140075 -4.069968201338884 19.05595424280814 13 32 28
0.8850703503755549 1.9430020779998383 4.594491442175558 196 187 180
1.7621754247628085 0.7526233478684983 8.99137635142823 150 143 150
1.2537789685624188 1.4300734164664324 6.3904194951453785 201 193 170
0.9166033341333584 1.9289552075553869 4.668079696653923 196 189 179
1.0033366390857434 1.7846931458559174 5.104230023628391 55 71 42
1.2495764205234396 1.4088978569059465 6.300606345602761 213 202 182
1.8983271944342053 0.5323134594189827 9.442341843958367 85 75 84
1.9626902320334854 0.38750064856472344 9.713718705925489 180 170 178
1.1216753667698116 1.6473695543099762 5.535405819099906 160 173 143
1.0361141136465326 1.7863963136643546 5.060873529826339 182 202 165
0.9428016831695372 1.9549493257532258 4.589556831674244 185 182 167
1.3210702310283258 1.4110561504045118 6.36344831461657 201 192 193
0.9347327378802606 1.9798408340939149 4.495469259626482 40 50 26
1.2284982990113396 1.5248721958961176 5.884640741924493 129 150 109
1.0101236472858377 1.8816592836034822 4.830716324653943 89 93 76
1.0101236472858377 1.8816592836034822 4.830716324653943 89 93 76
2.1679343776962123 0.0326530476153819 10.349996688606858 102 90 100
0.8428922993291379 2.1347818820422795 4.0035069230362765 176 167 158
1.2387161082354023 1.5416233763250764 5.871082889877996 109 124 95
2.2440563285172868 -0.10156728604893576 10.585821081178867 180 169 173
1.026418675573448 1.875955365179811 4.838294649187319 155 160 138
0.9518538460645218 1.9866180309633965 4.4759822394453765 65 73 50
2.1920143758962403 0.02769521142922751 10.265058212231947 107 95 105
1.9182740780376688 0.6203028215191428 8.974260220970736 203 193 201
1.2309896505866673 1.6048125387496808 5.713943173325375 137 162 130
0.8491782919870742 2.172088125705325 3.934669325126159 191 186 180
0.9354912597387596 2.0625062846576374 4.32589725799861 189 183 169
2.831789579550809 -0.8012787576586807 13.074253283849396 77 71 83
1.2701039931888893 1.5730585808386188 5.846032139853356 211 210 218
2.232614484569388 0.02156629650750493 10.249137018538168 181 171 180
1.1580305414297476 1.7454573633691464 5.2621564089068205 90 109 77
2.2865226685755924 -0.027896267641383497 10.339547646936825 67 55 57
1.2291719954427913 1.657260308741967 5.548893346723235 212 217 210
1.2786262222989624 1.6087280378571809 5.721946924385953 213 213 215
2.066113951792634 0.410375473101464 9.236655728003564 111 105 117
0.9954980066807918 1.9851151560679117 4.4473871197990045 36 54 28
2.1449241724070514 0.2956007381243074 9.423926481483697 113 107 117
1.0181517314426491 1.9722211810838433 4.466614428398819 40 60 32
1.0181517314426491 1.9722211810838433 4.466614428398819 40 60 32
1.0114756193992944 2.0409752609641796 4.373292197593541 178 176 161
2.1808155019295516 0.23834060255118872 9.422218918627813 186 181 188
1.0116576095803929 2.0441473797069287 4.341381929434938 88 98 73
1.0342109254461977 1.9853062157816193 4.433411499614146 171 190 162
2.148622897891356 0.3571766732540417 9.145798572976522 192 186 196
1.2123372842209612 1.7954645426232139 5.146300503388811 208 208 210
1.0689956871566466 1.9639020465540291 4.521245259746995 161 185 149
1.0104303879119418 2.061671683609621 4.237970636489932 143 162 132
1.1875726553939687 1.8345882604634653 4.958133979383317 209 215 205
1.3647825327365428 1.7034537437214274 5.662014004231414 199 198 206
0.9847650210299277 2.1206639909272718 4.081088567788738 167 175 152
0.997161896519198 2.1349221078189173 4.0548395931195875 180 186 158
0.997161896519198 2.1349221078189173 4.0548395931195875 180 186 158
1.7872433378609698 1.180486994640292 7.174125460324675 207 204 213
1.0551359634231912 2.072548450806199 4.207615498172637 167 181 148
1.1045852120889295 2.0849635762416456 4.237746423133488 182 191 174
1.1294643780278661 2.0418296387054427 4.3256619730645145 211 216 212
1.0718206017057947 2.126466476408918 4.053203822185154 165 173 150
2.036527569757286 0.8373271665291562 7.663968110278481 119 117 131
1.094226848590384 2.1349006214205133 4.0479321034159845 114 114 112
1.1023371609644732 2.123658039219129 4.0765423065922946 211 211 213
1.9648484065909273 1.0397241358243727 7.165738443871739 168 167 183
