ply
format ascii 1.0
element vertex 312
property float x
property float y
property float z
property uchar red
property uchar green
property uchar blue
end_header
-1.3661120809990233 1.727172327309329 2.7569580520033528 63 87 65
-1.3509482882939825 1.7255201814101728 2.7524502511099667 71 93 70
-1.5008448964788532 1.6425732131219843 3.3201918412199314 82 91 90
-1.3422011539270193 1.682032358018199 2.997799192630036 89 94 88
-1.3223233425544776 1.6862276432110777 2.9599621706753854 78 77 72
-1.1426620971055907 1.7364827234862583 2.652582985016671 60 85 56
-1.1886630371794753 1.7208884131001343 2.7742406860646525 92 103 87
-1.1471652089422857 1.7230929095326366 2.6921497829106307 44 74 50
-1.2145054889617801 1.6891114240221292 2.9009869564353195 66 63 56
-1.196377001224642 1.6984555748684111 2.8872484839049792 148 158 150
-1.1250721349180568 1.708753462738774 2.836196692291115 161 170 165
-1.138211913854942 1.6727416910401 2.8856232427543618 127 146 144
-1.1052823819818431 1.7089964508817381 2.8444257722031847 161 172 166
-1.0805218905206389 0.37292242369101763 2.893689558960082 45 50 44
-0.9054330677655626 0.08059165955135286 2.861587015140742 99 118 124
-0.9029759773791797 0.1319472436151534 2.8622332867865103 51 72 91
-0.8398462439500683 1.7270442764609897 2.7030573896122116 22 66 30
-0.8778320250621537 0.181815034653687 2.8564371499733308 52 79 98
-0.8778320250621537 0.181815034653687 2.8564371499733308 52 79 98
-0.8680213699793543 0.15456832545079355 2.8558236008041455 134 154 165
-0.8465733095155074 0.19076452250031212 2.8568814130661044 140 164 174
-0.8465733095155074 0.19076452250031212 2.8568814130661044 140 164 174
-0.9469319059736944 1.6241697350918387 3.2473562818584076 10 43 14
-0.9097468602344291 1.6275601163639128 3.257229306264117 115 166 123
-0.9097027798599445 1.6277214493578391 3.2577366551927924 115 166 123
-0.8617254255213534 1.6619624795906864 3.154808964719656 148 157 152
-0.7030776584583882 0.1727261036850169 2.831471052767214 141 164 172
-1.0262347790075848 1.5318282415696411 4.1621632813516145 10 58 20
-0.6671299580438605 1.7114830924252895 2.7346042701872215 95 150 93
-0.643632163237724 1.7266424653688643 2.7328755633511683 115 156 116
-0.8046073248535769 1.6095737101271195 3.4491695710617747 159 155 144
-0.7854281151888807 1.6276404703485003 3.402783690206429 137 152 131
-1.0958453962521364 1.44202295729684 4.747179550421023 165 179 182
-0.6478548914851225 0.18919512115704126 2.822382315761136 136 161 168
-0.6292960663470273 0.15542377654560988 2.8188065942422655 136 154 158
-1.0208397700911471 1.4377340699220384 4.789455536341248 132 151 147
-0.5991378252129738 0.1390638067791723 2.8155066708797216 46 64 76
-0.5952931092188822 0.1592241583616151 2.8119741348286906 137 154 161
-0.5951528561199494 0.13097741564756157 2.81239797353752 46 62 77
-0.77426097286055 1.591849501464268 3.808280538833962 128 146 130
-0.5395166353222567 0.18950311876362813 2.808955868125757 137 158 163
-0.5153566068403918 1.72316835817971 2.756038837690134 96 145 98
-0.5075934867735689 1.7293093597693594 2.7526720226193007 46 68 47
-0.5075934867735689 1.7293093597693594 2.7526720226193007 46 68 47
-0.7601191875804629 1.4910045828614433 4.362192592341527 22 52 16
-0.48524325512753413 0.07632613615575369 2.792649760294854 97 102 95
-0.48524325512753413 0.07632613615575369 2.792649760294854 97 102 95
-0.9097732387539497 1.329137073679866 5.363889335598338 158 165 173
-0.5153044898827748 1.6694661835394458 3.0705304795120423 112 160 108
-1.7519815416588866 -3.633669807748989 10.783986564007554 255 238 209
-1.0422754431849262 -1.9146775382674233 6.563420549555782 63 62 18
-0.7715798426048679 1.4236764002730244 4.862920521532484 16 44 4
-0.7709746338478778 1.4085580436562084 4.898454611257908 157 155 143
-0.39665749007409024 1.7466031818985035 2.6797033269398955 31 72 32
-0.6134685434647097 1.5236213079952425 4.193693730695058 85 132 90
-0.7317285302724862 1.380407688275028 5.084578865616869 29 75 28
-0.5921432836141749 1.5231036796658697 4.393788547018146 158 179 170
-1.3932881204523935 -4.17375335079782 10.74171902393776 255 220 193
-0.5786252326126133 1.4620780349853677 4.546664650677639 76 139 86
-0.6836697476712349 1.3314269573841193 5.3745788812308835 157 179 132
-0.3550329169061936 1.7031028458296071 2.8291846477130993 82 147 91
-0.34729845891848105 0.060739996631810254 2.774388210805148 93 99 99
-0.33466737334074287 0.07360096143557235 2.7708046092685796 95 100 93
-0.33466737334074287 0.07360096143557235 2.7708046092685796 95 100 93
-0.33054249479189624 0.12681587947051798 2.772953781152291 121 136 141
-1.2278467708318943 -4.238995161474025 10.70898208544361 255 234 206
-0.31241806798469035 1.722384329445395 2.7867078407716046 114 167 121
-0.4958155439262143 1.4783690273277352 4.428950159211554 92 144 96
-1.191107164252128 -4.174828214263897 10.74809807417269 255 240 210
-0.3051354403900489 0.0971446474477152 2.768053346865881 32 49 59
-0.30200929670768345 0.1578910493108538 2.769541308473413 51 74 88
-0.2756637102206541 1.7318086242188089 2.778743344660259 134 160 131
-0.2756637102206541 1.7318086242188089 2.778743344660259 134 160 131
-0.3872143010203642 1.5674315730562678 3.9979200029178763 69 118 73
-0.2619901035254853 0.12506398259216137 2.7589257083610925 129 144 149
-0.252304035864547 0.18944609733139853 2.76092412624811 141 161 172
-0.33465238651781953 1.6001215094349288 3.7926162810963184 151 154 137
-0.23576760771253186 0.09832827061272487 2.752165398228839 31 47 60
-0.22443570764165538 0.18135461572514133 2.760076192767862 52 78 95
-0.199523229717122 0.1862269338494365 2.7565657385609104 137 150 158
-0.2259711594340487 1.6462804427534854 3.1827390245086193 36 92 43
-0.19051610097087687 0.08224417804037193 2.744910840484847 103 104 99
-0.2797095107562418 1.536239903607637 4.1942995318377125 7 49 11
-0.17689203155464026 0.06203508623428271 2.7438792940563674 89 98 93
-0.17689203155464026 0.06203508623428271 2.7438792940563674 89 98 93
-0.17543207340597325 0.05987823005553472 2.7429508772463413 96 105 102
-0.17457832640853727 1.6819926105901586 2.7416785112527133 158 171 162
-0.22087682832279565 1.620748216965611 3.674371769364243 134 151 145
-0.20381620687928612 1.6117261243627647 3.722272104787418 37 62 32
-0.13963945952627546 0.14215348249785653 2.7460862701772566 120 134 145
-0.15997833009835916 1.6517808626288344 3.176028751947581 98 151 105
-0.15997833009835916 1.6517808626288344 3.176028751947581 98 151 105
-0.1340166068473909 1.7038149224094212 2.672669716104408 66 141 74
-0.16207942233681122 1.604044733298102 3.7515537041051994 45 71 44
-0.11644125089471838 1.5772848127618684 2.691927828769593 172 179 172
-0.22707754366542696 1.3406556239362855 5.319591827496833 158 149 132
-0.1011125058702755 1.5350104890556822 2.7085951970517343 98 107 104
-0.09933403851181796 0.07998562445148122 2.73284611639282 98 99 94
-0.07759756459858587 1.562912079743154 2.6346794903806416 175 182 175
-0.08722792106548843 1.6303513868416264 3.471512527047203 36 78 38
-0.048993678226698326 1.5260274470201574 2.6957834420552182 168 173 167
-0.19990060808980475 -4.241784577773784 11.359913146360812 221 193 169
-0.08618564382628228 1.3051874802328878 5.4770525896058935 24 45 2
-0.052987896785067594 1.5567727054514242 3.985412413517711 68 113 70
-0.03064894833757897 0.07090138529574529 2.7233453518128896 97 98 92
-0.02912495069066886 0.18170626249097788 2.729868347018766 141 154 162
-0.05391959343657214 1.3367425075597967 5.36395308213882 141 142 111
-0.010474427253953275 1.548156648781163 2.577487749040371 155 165 157
-0.008568747590651758 1.6161238654486487 2.5539773046808185 146 157 151
0.01025302481774628 1.320439390742371 5.429373102054524 112 146 111
0.015205135917927168 1.4918708614650056 4.496768435707068 126 147 114
0.027542145769943564 1.5297512826572586 4.160694264583947 141 154 144
0.13417507681838703 -3.6027090850943373 11.238978809655896 255 231 206
0.06499633957302677 1.3505714879778707 5.259343540950229 155 163 126
0.06499633957302677 1.3505714879778707 5.259343540950229 155 163 126
0.03568083752895137 1.6072882632036287 2.506694987840454 61 74 67
0.06342032366647715 1.5987729701392857 3.7707165999742553 34 63 35
0.043646006819838455 1.6057259420450387 2.4973989469526803 166 168 165
0.06903859421916345 0.155175012059285 2.720727539745635 50 71 88
0.11772218011343077 1.4704870421946572 4.486623246175 31 69 30
0.3109861611741489 -3.627560175670906 11.158180491937236 209 181 157
0.07589597846724098 1.4321763942129062 2.646530685492276 100 98 86
0.08335971619834634 1.4366374732613578 2.5569672264223096 186 196 197
0.17032324859269135 1.3639750549793717 5.157085248503065 153 151 126
0.09395170547553121 1.3984614528974062 2.6432367688494374 173 176 167
0.09740351257808151 0.09141787702326856 2.7099795224666097 29 40 44
0.09692343348287627 1.4506230986742186 2.525592275438879 138 148 147
0.19743417516331985 1.3709524527706194 5.122532234027638 155 146 129
0.44406238493555655 -3.607574521153456 11.141626800346222 229 198 177
0.27229266374759226 -1.8758311945796295 6.674187938974968 255 223 198
0.1022824974709131 1.5125029495018667 2.5026228540132265 164 167 156
0.11249581011063557 0.08194977386191543 2.7037057881690094 108 105 98
0.11354981801952366 0.164632767139604 2.7050357688814186 134 147 153
0.4730336318288225 -3.588846605106816 11.189210733640225 255 238 216
0.10640081001975861 1.483671457998311 2.510460814911947 61 62 54
0.12275428973688092 1.382672383214076 2.639542398890844 185 185 177
0.18003330384870384 1.5887787117205714 3.847117902011706 67 85 69
0.5546153367667478 -3.667009046660548 11.131557363108985 215 191 167
0.12613668479399365 1.5094864073355287 2.5088504279929067 145 146 138
0.13497259998025116 1.4367406917455852 2.6304294894886016 142 149 142
0.13972040890940485 1.4510097177667045 2.6059045492574535 79 93 93
0.5961514662143761 -3.5715859230019777 11.11293640970458 253 225 203
0.13347779836461182 1.5720177021181214 2.4652309450215544 159 164 157
0.14581375696110704 1.360063045947971 2.6633558548832297 168 175 168
0.13906963065390637 1.5262198735574535 2.5060924229418524 149 150 144
0.15260633568327026 1.3128338605885708 2.6952386136365116 123 126 115
0.13930182531297702 1.580461559962259 2.458301733666734 51 58 51
0.29700676653474123 1.401837541596921 4.941602059151008 99 149 98
0.1607488722734284 1.4234778870360225 2.6382789476367368 159 164 157
0.16880014790361839 1.3605213962453049 2.665529478982291 32 34 33
0.17073844341998765 1.4610332918744071 2.5918717919573138 81 93 91
0.7713800700479397 -3.656573983126805 11.105273071755644 210 182 161
0.1835895731543609 1.3774248032898688 2.624271231902988 168 174 170
0.1749755734056907 1.5858909781158708 2.465782183374772 129 144 137
0.18423917275052779 1.4414779727959584 2.603398582642236 49 62 55
0.33190727073619836 1.5038389690883602 4.312477760900327 14 50 12
0.23371891420100638 0.1778948497895304 2.688683559366215 138 151 157
0.23371891420100638 0.1778948497895304 2.688683559366215 138 151 157
0.9695430995267902 -4.2150896511281255 11.1509672319812 253 237 214
0.23605327698884865 1.3809612739296915 2.6378998830077403 67 70 63
0.23617876295828188 1.408684726989773 2.6205032449212124 163 163 151
0.2462886499450582 1.3238422891152382 2.6934256311729055 155 164 163
1.0387608846035281 -3.932196083940512 11.140915202613485 254 237 211
1.0538179557307599 -3.7192507226606564 11.047485044584029 250 233 207
1.065171377935559 -3.5678944590469435 11.053190824936102 255 255 228
0.2517596612147285 1.474621624263671 2.608388005761204 56 62 60
0.26215587477297336 1.4457038496333863 2.612356956060884 146 147 131
0.38615592633053086 1.6021218209163657 3.5994745101423797 19 60 16
0.46740754029818 1.4797586623724073 4.350537483993104 146 143 152
0.47453877789315785 1.48736735042715 4.370732058230055 144 138 148
0.29382248303980174 0.11943839369780676 2.6698274266831232 124 135 139
0.4004612215364246 1.6066953412492668 3.5661193502582655 44 71 40
0.2976604806215781 1.3966597325253667 2.6272637125564287 135 143 128
0.49742922465270617 1.4898805503248918 4.324255186880103 27 43 17
1.2794610156948056 -3.5051968849883197 11.073844788338858 246 218 196
0.30910007499662695 1.3546539113303642 2.6366698987617 166 178 176
0.31553891251886124 1.3419704225417937 2.658705383235896 128 140 138
0.5128383380053241 1.506174285950147 4.265351585810841 29 47 21
0.3008959020172564 1.5532940068328283 2.4486404013520167 68 77 76
0.5904026373967063 1.459560392804235 4.609087068120538 36 89 33
0.34237696374215215 0.11835685447106951 2.666622691324949 38 60 74
0.34237696374215215 0.11835685447106951 2.666622691324949 38 60 74
0.34701745413710433 1.3380698952882366 2.6822148278446725 164 170 170
0.31279296915961113 1.5690450268173195 2.419236408537823 155 167 167
0.7010991989283775 1.3263814499192224 5.297161623237488 145 141 114
0.3214788589821868 1.5652796212408737 2.4212943064671992 72 83 87
1.525333440620262 -4.210661664188367 11.325034472658395 74 74 66
0.37573466682819884 1.3182424482736248 2.7879514028090697 35 37 36
0.6124702360055895 1.477283175264303 4.529369724749815 21 57 13
0.33283352442905345 1.5549835659103173 2.4470842370810355 148 159 153
0.7209135062757066 1.3443894462834782 5.287587315252114 145 144 124
0.3783584329417891 1.3188183715364388 2.7632013707073173 58 60 57
0.38235815959018593 1.3133988655552105 2.7780023761588497 184 186 183
1.5702008334183906 -4.206834598128974 11.332762868157648 220 221 216
0.34513323982750355 1.5435157951226612 2.460855650747238 55 65 66
0.38287083883963646 0.17660740277524814 2.6644106798000005 132 147 152
0.38287083883963646 0.17660740277524814 2.6644106798000005 132 147 152
0.3977706513514083 1.3329133621468408 2.738034174099726 68 69 64
0.39908974575223993 1.319536974623452 2.735581502608759 178 180 175
0.4006739107370124 1.3327995694693529 2.7093181914863647 167 170 163
0.7525078842436974 1.3801611465125379 5.078129163904284 89 116 75
0.7415969631281779 1.4165712523287337 4.918676448507856 88 137 90
0.5930352796153077 1.5861954880056122 3.7716799840205315 131 122 123
0.4280492101154779 1.3529385350763055 2.6603588904784967 144 143 138
0.4338461876875252 1.307554632179836 2.6873671055014046 169 176 169
1.8700680544636137 -4.305805740690577 11.408196311662978 198 199 193
1.8663914537639807 -4.040477746268962 11.383264822783158 169 174 177
1.8691083621726912 -4.199594053170955 11.362533229230774 178 178 178
1.873937651128365 -4.248674655258705 11.327695161599378 208 212 211
0.4485426068300311 1.279244851996553 2.6951406838860326 178 183 179
0.44566902638285555 1.2939483585979814 2.673558165280546 170 175 168
0.4285034676914886 1.5083655854680418 2.5379167669633693 138 149 145
0.42530691026972134 1.5198608333678794 2.5019065141016554 70 81 83
1.9400511531652518 -4.2592965492298385 11.345331798247715 122 135 141
0.45567109006185796 1.3285299119806993 2.6575470778315813 162 163 158
1.9899879990318516 -4.867086743164675 11.524799983177026 160 185 207
2.013921293327078 -4.834171392523184 11.627091780668014 172 198 215
1.9854876426735 -3.932653932767842 11.2107628897602 66 67 71
1.9674626065967302 -3.6332548022552036 10.889664054732233 209 181 159
0.4518909837576906 1.4912851982722635 2.5013937405396462 158 163 157
1.9858683961565051 -3.6967444234851934 10.847537424210557 78 58 34
2.0045754956006863 -3.472145029948745 10.931989973783471 255 237 213
0.9319838478314049 1.3902236257325777 5.02692698450165 86 121 88
0.4933043421906354 1.344107417123198 2.6347497397358284 66 66 58
2.057210747101622 -3.876631430020859 10.887402469079746 252 237 208
2.0749406587225177 -4.595597081329964 10.96678987335919 255 235 212
2.0561113819118333 -3.5568142378531316 10.832512961894912 200 178 154
2.0785750537033603 -3.733702980098862 10.746012774316789 250 223 196
0.4891070905976435 1.4312805024357118 2.5130653157080287 170 176 176
2.110150446418968 -3.520975441461418 10.824747433827914 255 242 219
0.5140283099407469 0.14158537879727195 2.6282592673663325 31 51 62
0.47337863085105064 1.512406039601011 2.4099352068215714 160 167 160
0.9916104927263669 1.3918678872263481 5.035210611796135 97 137 102
2.140634690741226 -3.607586703646966 10.878025976029152 213 185 163
0.5165512774898111 1.301924635297835 2.6097174391107583 172 174 169
2.1852849603026097 -3.606561271393052 10.840308765884627 252 224 202
0.8614724219121364 1.5058988347173718 4.260753105610269 11 53 7
0.48205488830034643 1.5482384019691349 2.3732462275594393 115 120 113
2.245359888855127 -3.521813108500688 10.814814894233827 255 232 210
0.5310666641258741 1.3686520020113433 2.5448929356843317 88 93 96
0.5034764940261217 1.4791523099757256 2.3943558044393436 173 185 183
0.5474372107949228 1.308392412777518 2.5974319921099305 110 110 98
2.3231501515504704 -3.53312399682519 10.84766475665213 255 228 206
0.5180098907049627 1.4552082660676884 2.3995461716787845 103 113 112
0.5445470810073614 1.3962166349740164 2.4971836559947196 145 156 150
2.374677160052972 -3.6073085271313383 10.73063261702926 252 231 204
0.525106571621384 1.5377251719429947 2.341591872199544 125 128 117
0.5443960246141204 1.4112405033655395 2.4262548827643395 122 137 134
0.5313525124652727 1.4583316135952524 2.3540591714740957 164 175 169
2.4532448285694315 -3.5190829780543544 10.798819854133285 255 239 216
1.141675604987675 1.402915848432352 5.019124131799218 133 130 115
2.460019709516664 -3.4505492262616326 10.813981664749884 255 232 209
0.5544102045368968 1.4018577033879909 2.4214514957895332 159 174 171
0.5426928574046427 1.4494982670436087 2.362841627013416 69 69 71
0.5440165880671898 1.435792935672029 2.3674848749568107 179 188 187
1.120888042008352 1.4357611931995182 4.746252858921154 30 40 13
1.1561291705281893 1.4372928053286778 4.756165772095809 154 151 132
1.0044388786897143 1.5294860597971776 4.097751183057686 164 163 159
1.0044388786897143 1.5294860597971776 4.097751183057686 164 163 159
2.639377099075512 -3.5058242159797275 10.736288044309118 255 230 205
1.2495377706574446 1.3785833613726166 5.050398245432043 158 153 115
0.61125420359933 1.386021986709961 2.4317370313241167 90 99 96
1.2770091052093229 1.3926072799888225 5.04513456708807 55 77 41
0.5924133120449395 1.4035445246572484 2.3362981818226194 173 179 177
1.039524623890785 1.5366692078486788 4.090443255764259 144 158 143
1.2727550222093336 1.4099673249016451 5.008199257624032 148 140 129
1.2727550222093336 1.4099673249016451 5.008199257624032 148 140 129
0.5805915114726962 1.4398136624357065 2.285794395199287 190 199 196
0.5964891968629558 1.4544901105894101 2.269012437436211 172 184 182
1.1679676335960762 1.505129742346095 4.294658442717754 175 166 149
1.380759984195027 1.4227055170739265 4.926738527605556 130 143 123
1.326268145237422 1.4471410497957868 4.660014935157853 40 66 39
1.1979165036735988 1.5260420344649381 4.166994390015828 39 68 37
2.456287460811346 -2.8668890102427964 8.507578393770876 162 162 128
2.469818690414804 -3.375284469733544 8.546876450325698 236 215 186
0.6938342377956007 1.3621911051151117 2.40104701959144 78 81 74
2.487304987755727 -3.3017245371681967 8.601285674822359 255 235 203
2.4629224701347274 -2.9693055030329845 8.493799645183763 77 71 23
1.620387314743741 1.3383790796553046 5.5062564502848 39 38 17
2.679781920094787 -2.528505189974044 8.972393245075311 163 146 128
2.7511730903403993 -2.4058029010686464 9.025813729173652 138 130 111
1.7074791505672438 1.3753763633881229 5.24242601232845 148 159 142
1.1940378606316104 1.60689330595358 3.582664738120412 109 119 108
3.0933093712115296 -2.4090056409933407 9.154089017484957 28 28 16
3.801279870449591 -4.672250050504305 10.928293983462178 243 253 244
3.171743737800962 -3.58474340171431 9.017688417324182 213 215 201
3.2265065939893876 -2.236146548704846 8.929318615114628 179 167 155
1.2504000082446154 1.61469216827858 3.4492370386363187 86 94 73
4.092597141738767 -3.7338227584467405 10.861939041210379 240 215 185
1.0203924409510399 1.6535510281732457 2.6228622326303057 87 123 79
3.4011358202997104 -2.109999695259416 8.719017799756928 18 31 22
1.0601068664891158 1.6624297158426389 2.595595984634633 109 127 113
1.0646420277428505 1.5884919624619782 2.585708949533354 99 119 110
3.875371224847925 -1.9644683330864168 8.79964323606702 217 200 184
3.875371224847925 -1.9644683330864168 8.79964323606702 217 200 184
3.8090331524910175 -2.50618066048791 8.510224950504941 53 42 22
4.716827258602087 -3.4996700518463464 10.374648083698798 213 179 152
1.213493019880766 1.7154094053020015 2.6593469252125432 82 90 77
4.769262069912704 -3.4622313766025807 10.368224171373354 245 217 193
4.7920975167640165 -3.3764669528755054 10.367392749625028 250 222 185
1.6799674478528182 1.5801319896862749 3.6199891397605937 101 112 95
2.501644462886131 1.330223685896197 5.3811648961772685 50 62 38
3.8800312777643593 -1.9606534681572982 8.315105743688783 39 46 38
4.8565069695774845 -3.804143939141988 10.404892066597938 247 213 178
4.8565069695774845 -3.804143939141988 10.404892066597938 247 213 178
3.871152428677449 -1.9238335249098366 8.285858509421685 21 27 17
1.775412701900577 1.5556545249165954 3.7861566770628174 111 117 103
3.902071878909749 -1.8868919015487386 8.306179258626077 77 71 45
4.929954054597499 -3.9443447365975284 10.347681629145152 131 114 62
4.942033282436114 -3.7763558322801156 10.347203819952574 85 59 26
4.949673215793866 -3.824464657922389 10.362038245154782 182 173 118
1.980901888768429 1.502778202053426 4.141313667388798 66 83 64
