ply
format ascii 1.0
element vertex 816
property float x
property float y
property float z
property uchar red
property uchar green
property uchar blue
end_header
-1.736421 2.155876 3.555104 144 130 130
-2.061776 1.975418 4.248762 48 63 32
-2.316336 1.836205 4.780945 85 88 59
-1.982979 2.020439 4.094265 108 90 90
-1.721246 2.152264 3.556445 205 190 193
-1.774665 2.107599 3.692931 65 59 45
-2.022927 1.995204 4.218150 60 73 45
-2.022927 1.995204 4.218150 60 73 45
-1.777732 2.095113 3.723100 182 175 159
-1.815872 2.092320 3.804938 185 179 167
-1.638756 2.158928 3.501347 169 166 161
-1.563229 2.178118 3.402900 151 160 143
-1.989294 1.953859 4.333425 212 206 190
-1.549213 2.184407 3.397984 129 131 120
-1.922944 2.003519 4.238619 176 167 160
-3.065810 1.200329 6.797776 66 57 40
-1.672703 2.100228 3.728716 181 182 166
-3.299285 0.947446 7.582597 188 194 166
-1.578270 2.128519 3.656182 210 196 195
-2.916902 1.215944 6.772646 38 51 23
-1.447471 2.190690 3.368379 200 188 188
-1.595793 2.100446 3.717911 99 108 87
-1.595793 2.100446 3.717911 99 108 87
-1.531667 2.154036 3.580031 202 192 193
-1.571983 2.126387 3.678575 150 139 137
-1.563162 2.141002 3.660115 207 195 197
-1.424077 2.201001 3.351134 187 178 173
-1.558035 2.121703 3.690630 216 206 205
-1.625173 2.048723 3.854003 176 197 158
-1.551417 2.108582 3.703728 203 194 187
-1.605531 2.048810 3.873020 151 166 133
-1.397592 2.192822 3.374095 73 69 58
-1.591115 2.055179 3.850199 148 158 133
-1.432004 2.160738 3.466779 173 177 162
-2.989309 1.073113 7.245547 61 74 44
-2.747223 1.250738 6.693571 61 64 43
-2.747223 1.250738 6.693571 61 64 43
-2.659816 1.312209 6.540126 155 158 137
-1.445701 2.148039 3.581573 156 141 144
-1.445701 2.148039 3.581573 156 141 144
-1.434644 2.152016 3.557798 152 137 142
-1.373137 2.195826 3.411409 194 184 183
-1.467719 2.137610 3.678033 213 198 201
-1.372549 2.191807 3.447280 139 134 130
-1.431839 2.145623 3.605158 201 189 189
-1.398216 2.150445 3.535783 239 228 232
-1.366010 2.190011 3.456154 205 200 196
-2.269721 1.513061 5.765690 195 188 172
-2.772289 1.107945 7.067350 49 53 36
-2.772289 1.107945 7.067350 49 53 36
-1.452820 2.124896 3.708622 218 203 206
-1.407201 2.148787 3.609702 135 123 125
-2.253251 1.519186 5.816247 76 84 60
-3.050109 0.854339 7.877883 156 172 136
-1.404677 2.134325 3.639563 122 110 112
-1.318810 2.180302 3.453251 215 198 204
-1.344054 2.175364 3.527081 206 189 195
-2.077726 1.623670 5.455936 159 175 136
-2.339398 1.414066 6.147195 74 84 49
-2.339398 1.414066 6.147195 74 84 49
-2.111551 1.573407 5.555543 41 64 18
-1.334614 2.154391 3.538481 201 186 191
-1.248334 2.190454 3.433081 102 96 96
-1.258416 2.168291 3.520558 226 217 222
-1.152218 2.158589 3.501785 173 152 151
-1.091333 2.196793 3.437179 110 82 79
-1.094890 2.182991 3.458333 212 185 176
-1.078259 2.210092 3.429018 207 191 192
-1.072553 2.173915 3.491971 144 120 118
-1.056246 2.193927 3.449101 195 179 179
-1.043833 2.195409 3.485123 197 183 182
-0.982946 2.205538 3.486229 205 194 192
-0.952566 -0.049582 3.381489 198 193 199
-1.003888 2.173270 3.582208 199 185 182
-1.826926 1.287860 6.558878 71 74 45
-0.983923 2.179085 3.555517 191 180 176
-1.062937 2.058771 3.881385 21 30 9
-1.268445 1.861479 4.653583 60 76 40
-1.048094 2.072123 3.863508 66 70 45
-1.047174 2.067000 3.879861 133 143 116
-1.250087 1.864040 4.644969 161 175 142
-1.355052 1.727248 5.052481 210 219 192
-1.608150 1.463745 6.000346 139 161 115
-0.943868 2.174970 3.545263 110 99 97
-0.943868 2.174970 3.545263 110 99 97
-0.933254 -0.020435 3.506036 192 196 207
-0.963624 2.149266 3.646028 88 91 74
-0.933488 2.182106 3.553350 97 86 84
-0.935235 2.180437 3.573937 201 187 184
-0.935235 2.180437 3.573937 201 187 184
-1.002428 2.069716 3.861448 161 164 135
-1.528313 1.503305 5.912294 74 80 54
-0.898140 2.191872 3.514787 211 199 201
-0.937613 2.127293 3.715037 170 179 158
-1.113100 1.914997 4.415878 142 158 119
-1.464989 1.493262 5.897012 202 208 196
-1.199474 1.807919 4.875014 21 43 5
-1.459857 1.456896 5.989093 104 116 78
-0.880740 2.157664 3.638584 149 139 138
-0.865911 2.177901 3.577984 207 191 191
-1.356186 1.578603 5.606289 200 185 178
-1.814649 0.952292 7.517890 198 187 183
-1.232335 1.722471 5.130201 38 56 18
-0.853839 2.175066 3.577838 211 195 195
-0.836790 2.198241 3.529743 187 177 175
-1.628393 1.170757 6.886042 200 205 185
-0.909553 2.079076 3.859949 160 164 137
-1.045825 1.924842 4.457913 60 83 41
-0.800358 2.237450 3.412106 101 98 81
-1.760398 0.962620 7.523573 185 174 170
-0.874631 2.136374 3.742578 116 123 105
-1.157354 1.764268 4.952553 20 41 2
-1.010177 1.916919 4.430900 148 176 127
-1.068884 1.844178 4.753986 64 78 42
-0.767383 2.237126 3.423228 185 175 165
-0.987399 1.911310 4.432674 154 182 134
-0.824073 2.119978 3.716317 206 198 185
-0.891352 2.005083 4.057051 181 197 160
-0.809737 2.127203 3.717535 200 176 172
-1.424410 1.209859 6.690463 158 175 139
-0.747009 2.168078 3.583166 60 69 48
-0.734952 2.190181 3.546131 191 196 174
-1.533081 0.994863 7.430902 207 201 187
-0.732683 2.182603 3.558311 48 55 37
-1.500494 1.025508 7.295889 80 85 63
-1.707263 0.696314 8.387151 222 197 192
-0.740551 2.145945 3.655528 44 48 25
-0.740551 2.145945 3.655528 44 48 25
-0.708724 2.200863 3.497496 171 178 162
-0.726811 2.172432 3.599310 70 73 54
-0.914379 1.911941 4.555202 62 80 42
-1.392803 1.171989 6.951968 180 167 159
-0.690567 2.215500 3.470511 64 68 54
-0.726329 2.153866 3.652810 187 192 152
-0.670812 2.224924 3.445017 155 161 135
-0.760425 2.065708 3.935902 171 190 158
-1.539384 0.787445 8.062435 133 119 110
-0.683003 2.153462 3.646396 160 170 143
-1.322741 1.056224 7.190968 183 177 165
-0.665833 2.159341 3.628197 161 175 150
-0.855771 1.855788 4.690188 148 163 130
-0.777148 1.999773 4.283423 177 189 149
-0.708070 2.065589 3.925435 143 163 126
-1.365604 0.957879 7.602691 193 168 164
-0.648350 2.172748 3.617658 79 68 46
-0.851529 1.796550 4.753291 152 138 129
-1.530792 0.616336 8.655519 201 181 174
-0.639369 2.183157 3.616401 191 174 154
-0.607867 2.239127 3.441382 161 173 151
-0.613452 2.196028 3.491199 150 167 133
-0.826132 1.676330 4.705214 219 205 204
-0.787132 1.958234 4.511907 72 76 49
-0.627242 2.171211 3.622144 174 163 141
-0.671443 2.066773 3.949441 76 85 64
-1.290020 0.935795 7.589532 38 17 12
-1.183197 1.157508 6.961537 200 208 185
-1.211914 1.075119 7.160344 192 188 176
-0.653239 2.115819 3.902877 95 100 78
-1.175399 1.111470 7.053727 197 189 176
-1.321560 0.807374 7.962093 88 74 65
-0.732087 1.990852 4.418827 199 185 176
-0.824198 1.443765 4.996550 231 212 208
-0.792138 1.518745 4.862943 177 163 162
-0.792138 1.518745 4.862943 177 163 162
-0.769538 1.779429 4.740203 201 184 177
-0.596457 2.163567 3.677981 50 62 38
-1.132827 1.097682 7.055067 208 203 183
-0.595277 2.145293 3.725299 194 206 182
-0.758409 1.751709 4.771455 61 37 33
-0.560333 2.205850 3.571252 131 120 102
-0.747272 1.762392 4.761799 229 212 205
-0.639606 2.075990 4.077196 154 157 130
-0.546672 2.227676 3.496324 166 182 146
-0.696563 1.979801 4.456644 156 165 138
-0.560913 2.188346 3.592238 175 174 156
-0.747641 1.787431 4.804791 213 203 193
-0.571071 2.161755 3.714388 62 69 51
-0.727602 1.819051 4.764644 131 148 112
-0.727562 1.802875 4.786155 53 57 34
-0.724335 1.625647 4.780046 235 216 210
-0.653086 2.008361 4.344354 226 223 218
-0.732467 1.463279 4.909924 140 114 115
-0.706792 1.813418 4.779352 24 41 9
-0.701177 1.823313 4.755027 145 162 130
-0.707049 1.747456 4.819432 216 202 189
-0.642618 1.996265 4.421501 220 210 198
-0.714360 1.483661 4.918617 98 73 69
-0.709596 1.422035 4.914337 239 224 219
-0.517229 2.219543 3.594294 99 87 71
-0.612754 2.030205 4.308073 183 186 169
-0.678806 1.542432 4.832142 236 220 220
-0.625503 1.965276 4.459765 157 173 136
-0.653870 1.882646 4.679455 74 84 50
-0.683438 1.506357 4.893463 228 207 204
-0.681905 1.505538 4.889131 232 213 209
-0.684820 1.495274 4.929174 78 54 50
-0.627667 1.945389 4.529224 159 177 137
-0.626360 1.942804 4.525767 136 154 114
-0.490690 2.227350 3.563442 152 154 130
-0.507626 2.183613 3.696669 142 144 120
-0.667995 1.775025 4.890252 197 190 171
-0.657094 1.603193 4.821995 239 220 213
-0.657094 1.603193 4.821995 239 220 213
-0.610960 1.956298 4.488755 65 75 38
-0.682903 1.179842 5.026021 198 179 175
-0.709366 1.093571 5.333775 250 225 218
-0.597830 1.955338 4.508595 204 197 178
-0.654691 1.329787 4.945285 164 144 135
-0.652093 1.314874 4.953863 227 208 201
-0.634272 1.659483 4.871500 217 197 188
-0.640119 1.341026 4.953439 219 199 190
-0.632524 1.492349 4.901101 226 205 200
-0.639039 1.389658 4.979723 236 215 210
-0.587774 1.923724 4.610098 65 80 47
-0.573878 1.949103 4.520912 207 190 183
-0.573878 1.949103 4.520912 207 190 183
-0.580960 1.932153 4.590153 167 182 151
-1.175210 0.118780 9.422071 186 158 155
-0.662534 1.039721 5.335156 238 217 212
-0.666950 1.092672 5.372958 231 206 199
-0.662912 1.105078 5.343330 241 216 212
-0.447009 2.221327 3.610646 69 57 45
-1.078843 0.506590 8.792524 130 110 103
-0.601979 1.456452 4.923041 52 32 25
-0.588047 1.737267 4.859518 153 138 133
-0.591765 1.650146 4.888746 219 199 192
-0.606995 -0.404947 5.022108 102 102 114
-0.602624 1.340132 4.990688 232 209 201
-0.602523 1.388586 4.998250 193 168 163
-0.583447 1.660532 4.892200 229 209 202
-0.582042 1.633455 4.891071 210 191 184
-0.580897 1.427421 4.907252 235 216 210
-0.574131 1.578146 4.869964 207 187 180
-0.504902 2.039652 4.291528 179 169 160
-0.532940 1.933435 4.575626 223 208 201
-0.624568 1.098125 5.376718 240 215 211
-0.570570 1.632178 4.916371 47 24 18
-0.570570 1.632178 4.916371 47 24 18
-0.625831 1.072269 5.400034 29 5 1
-0.611025 1.121842 5.355058 110 81 77
-0.532968 1.901868 4.690886 55 77 41
-0.524319 1.928322 4.623426 197 191 177
-0.605003 1.006032 5.420025 241 226 221
-0.502766 1.949878 4.528611 144 173 125
-0.522561 1.863578 4.725546 151 176 134
-0.522561 1.863578 4.725546 151 176 134
-0.550048 1.352791 4.990268 237 224 218
-0.530552 1.582020 4.892828 219 199 192
-0.531531 1.661806 4.902984 62 43 45
-0.582437 1.067775 5.405259 229 206 200
-0.526783 1.732224 4.895394 220 205 200
-0.579152 1.143452 5.434573 218 191 184
-0.519108 1.752983 4.884401 208 190 186
-0.482031 1.928046 4.570991 84 82 59
-0.517125 1.495331 4.916131 228 208 201
-0.513474 1.424875 4.912304 223 204 200
-0.515418 1.345357 4.969052 229 218 214
-0.508890 1.460362 4.935974 66 45 42
-0.485971 1.867056 4.737296 138 165 122
-0.558203 1.081643 5.455992 252 229 223
-0.400378 2.144616 3.937130 218 201 191
-0.394104 2.167583 3.901386 202 186 170
-0.477972 1.853103 4.777869 171 186 147
-0.479333 1.655414 4.904405 217 202 197
-0.522666 1.193708 5.382842 236 209 202
-0.480468 1.551501 4.963492 114 87 80
-0.389070 2.087050 4.041397 181 203 156
-0.350486 2.201785 3.707814 86 97 65
-0.367343 2.148268 3.907498 197 178 172
-0.367343 2.148268 3.907498 197 178 172
-0.515426 -0.478911 5.527736 186 184 195
-0.352079 2.176876 3.815284 67 82 49
-0.456605 1.548524 4.956910 114 89 82
-0.357439 2.121155 3.952058 199 193 171
-0.436564 1.842910 4.858808 145 156 126
-0.317890 2.236234 3.610552 43 59 22
-0.437204 1.589674 4.975707 223 203 196
-0.314078 2.234969 3.589540 171 185 149
-0.434947 1.552667 4.977759 90 66 62
-0.475393 1.114784 5.485392 86 60 63
-0.378850 2.017291 4.387394 161 173 133
-0.426509 1.508908 4.960297 207 189 185
-0.464001 1.195716 5.445920 231 207 203
-1.471171 -5.037880 17.363552 19 29 20
-0.418634 1.811598 4.948757 86 73 65
-0.377189 1.976926 4.495594 38 62 14
-0.416809 1.564308 4.972698 225 205 198
-0.336334 2.101560 4.037948 87 82 50
-0.335683 2.117685 4.034116 134 142 105
-0.335683 2.117685 4.034116 134 142 105
-0.385658 1.925086 4.650420 44 66 30
-0.294851 2.231259 3.622721 44 62 20
-0.320829 2.139966 3.961986 222 199 191
-0.441258 1.175311 5.465518 247 223 221
-0.401520 1.613591 5.004327 235 217 213
-0.403634 1.603414 5.031738 80 62 58
-0.370201 1.907318 4.652282 148 174 135
-0.293538 2.195025 3.737776 176 183 149
-0.416413 1.313762 5.430317 238 218 217
-0.300872 2.130383 4.042731 47 39 18
-0.396901 1.216026 5.418429 117 93 89
-0.260581 2.194239 3.717433 64 75 41
-0.260581 2.194239 3.717433 64 75 41
-0.313034 1.971771 4.493068 157 180 134
-0.372797 1.097987 5.503772 105 77 76
-0.361933 1.233038 5.441381 208 187 184
-0.291550 2.011535 4.393435 131 147 110
-0.291550 2.011535 4.393435 131 147 110
-0.467560 1.124540 7.109801 215 200 195
-0.467560 1.124540 7.109801 215 200 195
-0.358409 1.076301 5.495145 218 193 189
-0.523868 0.821543 8.035904 98 74 64
-0.518933 0.842933 7.978341 201 178 170
-0.265936 2.119096 4.091347 195 196 164
-0.354258 1.185384 5.465753 81 63 63
-0.354258 1.185384 5.465753 81 63 63
-0.233235 2.218304 3.666912 161 178 142
-0.487498 0.863298 7.944250 203 178 171
-0.300000 1.657167 4.965736 9 33 7
-0.300000 1.657167 4.965736 9 33 7
-0.281752 1.826415 4.919978 129 157 109
-0.280702 1.638375 4.969242 35 53 29
-0.419847 1.020654 7.471326 229 210 203
-0.488916 0.498778 8.954867 207 180 173
-0.464735 0.615500 8.648953 205 180 175
-0.292329 1.258334 5.450403 107 86 83
-0.439358 0.749283 8.246032 218 198 191
-0.477689 0.433338 9.086122 216 189 180
-0.419598 0.837293 8.013048 232 207 200
-0.225837 2.000556 4.388748 44 72 31
-0.222809 2.028131 4.340005 135 164 116
-0.829086 -3.438094 16.542770 58 60 46
-0.263505 1.393150 5.342959 94 75 77
-0.260566 1.314734 5.447222 119 96 88
-0.260566 1.314734 5.447222 119 96 88
-0.338556 1.138936 7.093580 204 184 175
-0.258912 1.339067 5.427690 221 198 192
-0.241690 1.370470 5.442548 198 177 174
-0.230904 1.429368 5.358021 92 78 78
-0.230904 1.429368 5.358021 92 78 78
-0.201002 1.906681 4.746294 148 175 130
-0.346992 0.754292 8.250941 208 183 178
-0.346992 0.754292 8.250941 208 183 178
-0.229600 1.215768 5.486302 242 224 220
-0.225577 1.374919 5.464321 238 217 212
-0.184031 1.984821 4.512779 63 86 40
-0.198950 1.866056 4.889670 210 194 181
-0.167746 2.097228 4.162578 207 199 186
-0.273498 1.141447 7.081664 167 151 136
-0.207757 1.336075 5.484344 229 206 198
-0.263830 1.106308 7.244268 213 193 186
-0.263830 1.106308 7.244268 213 193 186
-0.163678 1.983403 4.521701 140 168 117
-0.191065 1.449284 5.412911 115 101 100
-0.297677 0.682775 8.508509 215 182 173
-0.319347 0.430881 9.141955 205 181 177
-0.302276 0.546443 8.841455 182 159 151
-0.346952 -0.602373 10.265164 91 68 74
-0.179301 1.459410 5.380161 63 49 48
-0.367635 -0.081192 11.060765 179 144 138
-0.178026 1.310208 5.505082 110 87 81
-0.215250 1.251779 6.720173 225 198 177
-0.215250 1.251779 6.720173 225 198 177
-0.139856 1.974690 4.536565 138 170 123
-0.205540 1.273450 6.674029 187 177 152
-0.241187 0.886956 7.840230 211 184 177
-0.152915 1.632145 5.269229 63 62 44
-0.231038 0.849143 8.000284 196 168 164
-0.129273 1.963151 4.553178 36 63 20
-0.293271 0.061845 10.451478 206 182 170
-0.212320 0.892396 7.814413 52 23 19
-0.095295 2.212144 3.729417 159 180 137
-0.111671 2.008521 4.547190 72 98 53
-0.106218 2.013510 4.346045 136 167 125
-0.268065 -0.146301 11.147135 159 122 113
-0.103546 2.041670 4.298775 152 179 134
-0.124818 1.712775 5.347290 150 165 134
-0.111329 1.874340 4.935905 154 179 137
-0.190490 0.637580 8.644700 213 186 179
-0.196612 0.461829 9.132404 215 188 181
-0.157645 0.994680 7.627851 205 182 176
-0.179125 0.558661 8.919007 225 194 189
-0.202242 -0.220120 11.488467 196 168 157
-0.090324 1.822983 5.198353 37 46 17
-0.055781 2.154983 3.922635 41 64 22
-0.113669 0.855180 8.128006 212 191 186
-0.099629 0.984776 7.657750 215 192 186
-0.102211 0.913511 7.898084 132 115 108
-0.067676 1.766844 5.276188 112 139 88
-0.110254 0.484958 9.059780 195 170 163
-0.101106 0.294771 9.560674 206 172 163
-0.129543 -0.563219 12.612162 191 162 156
-0.053815 1.693778 5.370288 168 178 154
-0.053815 1.693778 5.370288 168 178 154
-0.039636 2.114385 4.058985 66 79 51
-0.090668 0.364383 9.428926 202 163 156
-0.033416 2.234051 3.703581 27 50 6
-0.077851 0.085418 10.348439 199 177 166
-0.030748 2.060832 4.243372 152 178 143
-0.034813 1.816068 5.179786 161 184 142
-0.025126 2.014628 4.437648 144 169 129
-0.055951 0.003382 10.842145 111 84 75
-0.036857 0.762942 8.498983 223 194 190
-0.027259 1.382860 6.416677 68 81 51
-0.027259 1.382860 6.416677 68 81 51
-0.020977 1.452243 6.174195 181 181 147
-0.033656 0.141478 10.245602 215 191 181
-0.014432 1.594736 5.757313 32 60 12
-0.014432 1.594736 5.757313 32 60 12
-0.019252 0.648236 8.661922 131 100 95
-0.002908 -0.458052 12.405709 125 92 83
0.002956 1.834724 5.154440 151 173 126
0.010453 0.936283 7.915071 218 195 187
0.016336 0.591826 8.881846 143 110 103
0.021264 0.472136 9.184677 209 180 172
0.014895 1.613457 5.736086 28 50 12
0.017169 1.800404 5.281155 156 178 129
0.050141 1.152457 7.161955 233 215 205
0.104883 -0.028974 11.047713 207 177 167
0.049400 2.077462 4.268847 41 61 26
0.081307 1.257322 6.884657 205 198 179
0.067750 1.819914 5.184550 167 185 147
0.132157 0.504595 9.223132 213 189 179
0.076045 1.799340 5.302320 49 65 29
0.112563 1.284848 6.703763 155 171 135
0.182910 0.044291 10.712553 193 163 155
0.166888 0.315451 9.709787 213 186 179
0.091717 1.835749 5.240561 38 55 19
0.076257 2.085999 4.133683 139 162 120
0.119485 1.622062 5.699839 153 179 134
0.111994 1.836132 5.248034 62 76 41
0.097709 2.009274 4.550496 164 182 144
0.112466 1.831095 5.176864 159 176 144
0.090855 2.123706 4.137168 62 86 50
0.126237 1.914687 4.924967 77 82 50
0.109454 2.092371 4.223722 145 172 127
0.136257 1.823621 5.244334 126 146 111
0.374521 -0.820811 13.686476 152 127 120
0.107175 2.175228 3.893901 160 181 148
0.121311 2.121289 4.098383 140 167 122
0.361759 -0.326054 12.169640 188 164 154
0.372461 -0.395960 12.393456 78 49 41
0.372461 -0.395960 12.393456 78 49 41
0.179305 1.546698 5.948872 63 85 39
0.179305 1.546698 5.948872 63 85 39
0.206183 1.280083 6.756785 198 193 171
0.416608 -0.662013 13.107452 184 157 150
0.139533 2.090817 4.234694 170 194 158
0.392678 -0.167050 11.683977 167 144 136
0.227021 1.303630 6.733577 87 90 63
0.305545 0.861493 8.265448 206 181 176
0.186406 1.893894 4.974435 165 179 146
0.199926 1.753986 5.289608 32 52 17
0.200773 1.790500 5.289369 136 152 123
0.186808 1.942569 4.835720 175 193 155
0.309106 0.967808 7.936652 217 194 188
0.268087 1.320159 6.727406 181 181 153
0.873025 -3.107785 21.212196 60 54 38
0.393757 0.500224 9.366739 143 114 106
0.458342 0.018085 10.785559 71 42 34
0.458342 0.018085 10.785559 71 42 34
0.435438 0.243237 10.111605 189 160 152
0.551166 -0.516380 12.798747 86 65 62
0.322484 1.152218 7.380124 68 39 31
0.491375 -0.058033 11.250071 190 167 159
0.207097 2.020801 4.586853 52 66 33
0.822459 -2.192153 18.106546 170 143 132
0.485016 0.123617 10.567616 207 180 171
0.526910 -0.054132 11.261614 203 178 171
0.430423 0.571627 9.195431 199 169 161
0.546953 -0.114855 11.317574 133 104 98
0.432900 0.714689 8.769835 149 130 123
0.628320 -0.451198 12.633882 181 154 147
0.328215 1.368808 6.564629 203 199 174
0.230693 2.021947 4.561927 171 180 149
0.649725 -0.714300 12.754171 157 138 132
0.266293 1.859241 5.167748 80 102 63
0.655701 -1.029329 12.674365 42 30 30
0.617848 -0.181875 11.891355 196 173 165
0.665213 -1.077371 12.624782 206 202 191
0.249478 1.991215 4.714438 178 178 154
0.279146 1.807137 5.261404 161 189 148
0.222910 2.118039 4.145375 230 200 192
0.502323 0.569609 9.275598 208 178 168
0.688831 -0.966650 12.661512 85 74 78
0.612244 -0.032907 11.206427 115 81 71
0.463794 0.856224 8.457731 143 124 117
0.225253 2.136900 4.106851 95 90 70
0.572910 0.251635 10.357224 216 187 179
0.709144 -1.066654 12.602987 40 31 34
0.261326 2.001196 4.635654 83 96 68
0.542456 0.474690 9.423941 190 166 156
0.274945 1.979014 4.753273 182 186 159
0.736667 -1.156338 12.636127 205 202 193
0.441273 1.191533 7.253864 212 198 189
0.782109 -1.078348 12.664238 68 61 69
0.411575 1.391288 6.541287 193 193 169
0.256768 2.175431 4.008634 33 43 16
0.654140 0.347058 10.003839 205 178 169
0.654140 0.347058 10.003839 205 178 169
0.600570 0.617695 9.131531 184 166 156
0.835728 -0.976648 12.683707 37 32 39
0.471491 1.233785 7.042174 197 184 168
0.719785 0.144569 10.668666 217 193 181
0.818433 -0.242090 12.046660 135 98 90
0.860936 -1.245604 12.641251 45 36 39
0.870631 -1.202044 12.740996 82 77 84
0.873722 -1.315085 12.655586 228 218 217
0.904681 -1.351123 12.683825 221 208 215
0.889620 -0.296905 12.369397 176 149 140
0.675658 0.545565 9.345596 242 214 203
0.319463 2.098193 4.378836 211 202 185
0.287276 2.196349 3.935050 52 66 33
0.369251 1.868500 5.014119 142 167 127
0.321185 2.098544 4.342467 188 180 167
0.426577 1.631579 5.739067 67 95 46
0.472631 1.438887 6.354305 171 199 150
0.547992 1.213483 7.174084 213 196 189
0.452503 1.624504 5.772060 147 179 132
0.417407 1.792929 5.295468 200 199 169
0.332623 2.154280 4.150744 149 157 120
0.637588 1.041144 7.927197 207 183 179
0.369355 2.026136 4.590800 54 53 33
1.044757 -0.683156 12.860991 170 154 154
0.434833 1.787883 5.307014 191 181 154
0.435004 1.797205 5.285903 123 118 89
1.384937 -2.062714 16.646013 66 63 72
0.420373 1.884782 5.037653 69 76 43
0.384859 2.017520 4.584713 232 214 202
0.387037 2.046443 4.570452 127 132 110
0.387037 2.046443 4.570452 127 132 110
0.472003 1.737367 5.541332 218 211 183
0.392003 2.027586 4.570801 47 33 20
0.810563 0.564860 9.400057 219 194 187
1.115011 -0.781228 12.891672 55 55 65
0.362935 2.097339 4.151772 228 198 188
1.483137 -2.656457 16.958508 41 45 46
0.391852 2.084307 4.425868 41 52 20
1.126835 -0.325981 12.514339 98 71 62
0.599572 1.407884 6.636962 204 192 180
0.599572 1.407884 6.636962 204 192 180
0.712022 1.047961 7.876343 209 189 182
1.515556 -2.346171 16.726871 211 212 217
1.515556 -2.346171 16.726871 211 212 217
1.558695 -2.820669 17.093584 40 45 41
0.610663 1.381051 6.683825 210 209 188
0.514439 1.705578 5.596748 159 181 142
0.919125 0.378935 9.992957 198 168 158
1.132682 -0.228976 12.283826 91 57 47
0.465675 1.892233 5.030692 206 195 177
0.481551 1.841992 5.194262 77 93 57
0.386203 2.188623 4.161391 81 91 64
1.227767 -0.555475 13.028031 91 66 61
0.379975 2.194874 4.019682 194 203 172
0.425172 2.101028 4.359004 201 204 177
0.984399 0.372792 10.049764 197 164 155
1.694670 -1.908221 16.974459 35 28 35
1.730639 -2.931341 17.014532 49 59 51
1.730639 -2.931341 17.014532 49 59 51
0.860676 0.850818 8.453224 215 187 183
0.507244 1.935767 4.960450 193 180 164
1.762643 -2.981372 17.085585 52 62 53
1.119145 0.147965 10.845572 104 84 73
0.958010 0.608758 9.232766 218 195 187
0.491963 2.022749 4.603273 144 150 122
0.928515 0.821922 8.654164 195 166 160
0.565098 1.823855 5.225355 153 180 135
1.832526 -2.750251 16.915791 47 52 48
1.173385 0.218501 10.731463 179 152 143
0.539712 1.927116 4.933677 185 179 163
0.539712 1.927116 4.933677 185 179 163
1.186812 0.188969 10.821077 216 187 179
1.864986 -2.641030 16.887497 81 85 86
0.543586 1.949842 4.882657 71 76 54
0.543586 1.949842 4.882657 71 76 54
0.902695 1.043203 7.908774 114 94 87
0.687220 1.594234 5.952066 178 200 154
1.241648 0.259890 10.736334 200 176 166
0.535025 2.026514 4.620453 172 182 157
0.535025 2.026514 4.620453 172 182 157
0.543893 1.998584 4.688324 61 74 46
1.152048 0.424972 9.921601 98 80 70
0.463051 2.210241 3.976357 182 187 167
0.534222 2.029081 4.586747 72 75 54
0.547492 1.987177 4.697275 182 198 171
0.823529 1.281207 7.052499 199 199 175
0.985727 0.882591 8.383080 204 181 175
0.606927 1.865688 5.114388 230 214 198
0.606927 1.865688 5.114388 230 214 198
0.875157 1.196790 7.372768 195 187 174
1.089445 0.723970 9.054334 136 111 106
0.533601 2.076954 4.405010 136 161 119
0.706452 1.665766 5.797937 185 173 161
0.706452 1.665766 5.797937 185 173 161
0.636304 1.827544 5.189202 169 193 159
0.504566 2.158765 4.106369 56 71 40
1.052717 0.861885 8.557949 111 94 86
0.845434 1.343947 6.869946 193 196 167
1.522921 -0.215780 12.314831 167 139 128
1.522921 -0.215780 12.314831 167 139 128
1.557612 -0.275348 12.570784 103 73 63
2.099149 -2.991299 16.902718 38 45 37
1.291553 0.350413 10.377309 101 78 64
0.928027 1.206610 7.407076 123 117 101
1.747246 -0.677590 13.934146 127 121 99
1.107920 0.800493 8.806190 220 197 191
0.551041 2.099441 4.352887 152 165 135
2.186918 -1.776682 17.246872 111 95 95
2.186918 -1.776682 17.246872 111 95 95
2.148534 -2.766019 16.830601 85 86 88
2.148534 -2.766019 16.830601 85 86 88
1.178327 0.664033 9.227726 208 188 181
0.523581 2.194479 4.089730 68 70 48
0.938925 1.224733 7.331035 213 212 191
0.938925 1.224733 7.331035 213 212 191
0.954833 1.171948 7.456465 193 179 170
0.854825 1.439705 6.591751 198 197 167
0.520365 2.220674 3.996537 189 186 169
0.641199 1.944960 4.890309 67 82 53
0.521380 2.230466 3.918951 45 48 27
2.295693 -1.704257 17.242748 63 42 39
0.545343 2.187281 4.081572 48 67 37
2.282852 -1.611772 17.072990 147 134 126
0.578817 2.100701 4.323741 136 159 117
0.550558 2.152864 4.110183 154 180 133
0.698603 1.855158 5.163639 147 161 128
0.657119 1.959248 4.851154 183 188 166
1.229571 0.731517 9.024271 132 115 105
1.248062 0.806892 9.054857 205 188 180
2.214127 -1.280026 15.968570 76 83 67
0.568331 2.169229 4.091519 174 195 152
2.393704 -2.746488 17.134947 65 64 69
0.876157 1.508680 6.269266 192 196 169
0.682030 1.959813 4.857983 165 169 152
1.718041 -0.159614 12.211044 179 163 150
0.690628 1.939420 4.901820 46 61 32
1.662188 0.034547 11.608274 133 114 107
1.239267 0.866654 8.603543 131 130 109
1.301682 0.745832 9.032208 213 200 192
1.301682 0.745832 9.032208 213 200 192
1.748235 -0.113854 12.057319 82 70 58
1.748235 -0.113854 12.057319 82 70 58
0.626974 2.108652 4.313679 157 184 139
0.704629 1.953751 4.845225 96 106 82
2.568464 -1.659190 17.498978 61 46 51
1.926345 -0.377977 13.068455 169 155 146
0.891784 1.597690 6.042565 109 113 90
2.622761 -1.744324 17.727203 21 12 17
1.132717 1.154090 7.595926 196 179 169
1.406061 0.629911 9.362343 120 113 94
1.858363 -0.200984 12.374687 81 74 64
2.359737 -1.104149 15.706203 168 159 164
0.639559 2.118871 4.252836 164 190 142
1.696257 0.113529 11.277181 201 181 174
0.857035 1.718274 5.678411 206 200 186
0.604771 2.202924 4.002113 183 175 156
0.708558 1.985925 4.676209 58 88 50
2.649908 -1.675136 17.407335 101 94 102
1.377441 0.763968 9.016542 193 180 171
1.366635 0.800030 8.941119 208 195 186
1.703890 0.185825 11.124068 119 102 92
0.793850 1.873166 5.144667 170 183 157
0.889364 1.708388 5.725896 142 133 116
1.524726 0.566755 9.800712 136 136 108
1.696632 0.286830 10.847268 95 85 60
2.115790 -0.381664 13.476132 186 174 174
2.043449 -0.224912 12.983958 175 165 164
1.688982 0.349779 10.693798 186 169 159
0.739802 2.001938 4.662795 165 184 154
0.739802 2.001938 4.662795 165 184 154
0.902143 1.726012 5.674384 204 198 182
0.732339 2.040328 4.596221 85 101 72
1.444587 0.769749 9.037107 201 187 176
0.677432 2.143498 4.227046 47 61 25
1.880896 0.097582 11.645244 174 162 164
0.730677 2.065483 4.505568 174 183 156
2.246388 -0.456792 13.842084 143 131 135
2.208295 -0.358707 13.529361 139 125 125
0.873464 1.796792 5.349427 158 178 141
0.873464 1.796792 5.349427 158 178 141
0.833919 1.887232 5.101321 155 172 136
1.093814 1.397596 6.686321 203 208 178
0.824191 1.911800 5.034693 82 74 55
0.693320 2.134702 4.227190 151 168 132
1.283367 1.121786 7.796990 218 200 196
0.650787 2.216290 3.947327 166 179 149
3.608091 -6.091185 21.727942 240 244 253
0.817919 1.952736 4.879029 194 187 177
2.216942 -0.277600 13.209557 173 161 165
0.687624 2.211530 4.082469 171 186 155
0.679786 2.209791 4.031999 64 69 49
0.679786 2.209791 4.031999 64 69 49
0.691955 2.178130 4.085679 146 171 131
1.024706 1.624593 6.023187 153 159 133
0.766591 2.083175 4.480401 167 169 147
0.700161 2.188650 4.080523 60 82 44
0.858646 1.946014 5.000848 191 186 166
2.588007 -1.032569 15.044847 107 105 119
0.739668 2.101063 4.294087 155 169 136
0.872601 1.913238 5.057159 86 84 63
0.872601 1.913238 5.057159 86 84 63
3.102380 -2.159970 17.945290 32 33 38
1.994164 -3.911013 11.471290 255 249 255
3.175868 -2.061965 18.028103 184 184 192
0.909814 1.875842 5.154364 43 59 23
1.461568 1.017794 8.221402 127 115 115
1.338052 1.236546 7.485309 224 215 208
0.765829 2.132950 4.283887 154 165 135
2.047465 -3.962466 11.453045 99 93 105
1.088300 -3.218955 6.080032 36 37 32
1.154478 1.501631 6.445990 161 187 142
1.042012 1.688669 5.798385 152 169 133
1.042012 1.688669 5.798385 152 169 133
2.063031 -3.907854 11.419198 235 229 243
0.723233 2.209747 3.990276 65 74 57
1.042073 1.705339 5.748561 167 182 151
3.896306 -5.936012 21.470463 28 38 47
3.207300 -2.099458 17.658852 186 186 198
0.737999 2.196474 4.061895 184 201 169
3.239961 -2.369295 17.789337 46 51 57
0.848871 2.046173 4.629082 191 193 172
2.247629 -0.106422 12.227145 170 157 166
0.827920 2.081125 4.469521 187 178 173
3.306792 -2.359892 17.840254 31 40 47
3.306792 -2.359892 17.840254 31 40 47
0.903199 1.976382 4.842564 150 164 128
3.264933 -2.709687 17.469650 22 34 10
1.082047 1.705559 5.749191 205 219 184
0.986351 1.880570 5.221547 153 153 129
4.664401 -4.664842 24.645147 161 178 159
0.766471 2.189030 4.045126 165 177 153
0.910232 2.001213 4.790815 108 99 90
4.196683 -4.703678 21.953775 24 43 39
4.215422 -5.207043 21.982552 46 59 65
0.913665 2.007329 4.741578 197 188 181
1.879558 0.801350 9.590561 150 143 150
0.946764 1.993994 4.820388 199 191 180
1.039617 1.850655 5.287906 69 84 53
1.306213 1.473429 6.585948 211 200 182
2.031997 0.567812 10.107392 85 75 84
2.105283 0.413310 10.419619 186 176 184
1.073372 1.852107 5.241927 169 189 152
1.073372 1.852107 5.241927 169 189 152
0.973394 2.020034 4.737130 185 182 167
1.381919 1.476749 6.656349 201 195 195
0.964439 2.044442 4.636908 56 64 41
1.095661 1.841674 5.264216 67 89 50
1.280510 1.590428 6.133345 129 150 109
1.044781 1.947835 4.995332 83 87 72
1.044781 1.947835 4.995332 83 87 72
2.337395 0.031952 11.159101 106 94 104
0.866658 2.196640 4.114419 176 167 158
1.291105 1.607862 6.118951 88 103 70
0.967903 2.066108 4.578472 167 165 150
1.061743 1.942152 5.003701 190 195 175
0.982028 2.051316 4.616436 98 106 83
2.362228 0.026609 11.062220 107 95 105
2.047055 0.660323 9.576936 203 193 201
1.281692 1.672113 5.948798 124 150 115
0.872751 2.234060 4.041806 203 198 192
0.964163 2.127485 4.456846 182 179 164
3.119985 -0.888848 14.404477 84 78 90
0.976952 2.100943 4.501770 161 147 144
1.323784 1.640677 6.092688 211 210 216
2.406197 0.019996 11.046083 172 162 171
1.201795 1.812922 5.460253 122 142 107
1.015595 2.040370 4.595454 181 197 171
1.278392 1.724968 5.770512 211 219 206
1.331598 1.676606 5.958473 209 211 210
2.210075 0.436864 9.880443 107 101 113
1.079058 1.991524 4.766312 142 172 136
1.141302 1.938526 5.015793 26 31 8
2.298034 0.314300 10.096799 115 109 119
1.050568 2.036843 4.607433 47 67 39
1.050568 2.036843 4.607433 47 67 39
1.137017 1.951186 4.953853 176 185 158
1.052812 2.050193 4.579845 29 49 21
1.043039 2.106549 4.508223 172 170 155
2.336808 0.252880 10.096347 175 170 176
1.066035 2.038653 4.600864 166 185 155
1.043007 2.109400 4.474372 97 101 84
0.972665 2.209934 4.170164 163 160 141
1.066963 2.050055 4.572395 171 190 162
2.297728 0.379781 9.780611 190 184 194
1.287518 1.826654 5.469248 125 131 119
1.103620 2.029398 4.666347 138 159 126
1.041019 2.126025 4.364638 155 171 142
1.041005 2.139010 4.361749 26 42 13
1.041005 2.139010 4.361749 26 42 13
1.230104 1.902048 5.134714 203 208 201
1.052330 2.128259 4.381032 142 163 130
1.421293 1.775438 5.895811 199 198 206
1.013458 2.184415 4.198195 163 171 147
1.146777 2.041066 4.705285 43 67 31
1.026084 2.198852 4.170628 176 182 156
1.026084 2.198852 4.170628 176 182 156
1.883403 1.244152 7.560051 207 204 213
1.087023 2.137223 4.333130 164 178 145
1.114625 2.142862 4.337213 52 64 40
1.138405 2.150940 4.365884 184 193 176
1.164811 2.107849 4.459521 212 217 213
1.103163 2.190803 4.169942 159 167 144
2.155539 0.885640 8.111943 118 116 129
1.126279 2.199639 4.164707 115 116 110
1.134872 2.188546 4.195103 213 213 213
2.072185 1.096505 7.557194 168 167 183
1.838456 1.525466 6.615162 202 200 211
2.186677 0.937560 7.824856 194 193 199
1.955224 1.369368 6.878980 187 189 204
2.108969 1.119608 7.311290 120 119 133
2.082796 1.239558 6.906009 111 109 123
1.721120 1.811620 5.625908 141 141 153
1.706943 1.899185 5.347449 213 213 223
1.883929 1.691309 5.828514 124 123 137
1.827107 1.842761 5.467285 160 160 170
1.683488 2.031777 4.879103 205 205 215
