ply
format ascii 1.0
element vertex 681
property float x
property float y
property float z
property uchar red
property uchar green
property uchar blue
end_header
25.509264 -8.920264 140.569382 106 66 33
-20.701298 1.147871 118.849937 83 56 53
-17.555079 -24.838074 108.889572 135 151 145
16.984089 60.212070 145.396179 179 195 194
5.763193 -9.471606 123.476128 124 63 22
-31.386187 1.465153 121.359230 172 120 63
23.515472 1.337428 136.375610 224 230 236
-44.264923 -16.548841 127.125137 16 19 12
17.770138 50.521271 145.408752 28 33 37
6.968117 4.671734 17.796495 239 227 213
-19.200884 38.123001 125.288383 165 186 184
27.362413 -35.791641 138.145798 111 75 48
-28.510935 -1.286002 120.205040 29 19 9
-14.525748 -9.890491 118.241631 131 127 115
0.666333 49.377583 138.469482 102 99 90
-8.774769 -33.295990 126.390266 149 153 139
5.882572 -23.427132 127.715721 75 14 0
-4.546519 -4.507431 117.900787 16 14 28
-4.983312 -22.513496 125.794037 177 6 12
19.882891 35.652901 139.586121 196 164 133
-35.859207 51.056740 127.624306 142 129 110
-2.423734 13.589628 119.615425 139 143 155
-32.181324 30.450428 125.476418 95 95 90
19.433558 48.729176 144.333328 239 241 242
24.137758 -2.174318 139.609726 129 110 93
-21.711109 -42.085720 124.906052 112 106 92
-20.962315 -30.992517 125.033890 135 145 131
-44.075161 -61.027905 134.138245 110 70 34
-44.313736 -43.234394 129.894867 92 81 63
5.501314 27.963816 122.989830 255 215 152
-46.361984 -14.238917 113.647568 120 130 123
-42.259624 -31.879381 128.425491 140 151 135
11.564991 1.836812 129.303635 51 60 57
8.257060 49.343784 141.047119 223 231 235
23.238661 43.108814 142.929581 30 20 11
-41.625645 48.090202 126.423958 141 150 132
-33.671726 71.037773 127.958405 187 140 98
-33.671726 71.037773 127.958405 100 98 81
3.632994 -38.377007 129.828796 198 206 223
21.262148 68.871834 149.131943 188 196 195
-9.083915 -25.241369 122.102966 248 249 253
-3.840097 0.294634 119.155350 88 54 33
14.524248 -29.943594 132.032074 147 133 110
-11.194679 59.767460 142.340637 83 65 38
-30.511986 40.441277 126.366234 89 85 73
-6.848742 10.229609 16.568796 133 129 115
-1.228308 -59.175056 136.009598 36 36 37
3.540936 -64.257362 137.559296 163 172 183
-48.278393 46.611652 119.316376 33 26 19
-51.525986 -61.084694 132.757935 131 122 107
-40.735291 -94.906830 148.407104 136 118 94
-39.057068 22.050203 125.396652 146 153 135
-14.821795 16.376339 119.653450 153 171 161
-28.128794 22.988197 123.377571 90 99 88
2.393466 -10.114148 123.284386 88 81 71
-9.817218 17.375786 118.087944 57 61 65
-26.429543 -1.026877 119.775833 210 206 210
-33.698830 41.777447 124.609100 17 11 8
9.263108 -0.898279 125.202766 31 22 18
-49.896435 0.542424 123.844917 8 16 9
22.898159 40.950150 142.934738 9 14 7
-44.887939 -1.001210 122.429756 121 124 107
-46.132919 -15.208743 128.257034 48 58 55
-43.312286 -12.083157 125.950371 118 121 110
6.011230 90.535774 149.302719 19 14 7
-28.606070 -38.222057 125.380989 105 99 85
-30.511986 40.441277 126.366234 18 9 3
1.977217 8.459999 120.990524 183 192 189
-8.227896 -34.084103 125.799965 204 199 208
-43.399857 70.592384 120.346283 76 54 37
-9.271620 -1.817594 118.087631 59 49 41
-7.075977 1.402695 117.656631 66 45 26
-6.334701 1.660694 117.272461 85 77 64
-6.276419 0.844953 117.674454 18 11 5
-5.665700 -4.004091 117.757271 188 198 210
-27.004023 23.113955 121.879211 243 238 236
-3.786593 -2.142025 117.805534 250 253 255
-2.979022 3.145060 119.127945 34 26 24
-2.576556 12.865976 120.422325 255 255 250
-2.423734 13.589628 119.615425 104 65 36
-3.002912 17.957691 121.618973 253 245 240
-1.491004 15.483525 121.053291 170 109 50
14.938276 42.375202 137.062744 127 131 132
15.771148 43.183292 138.660141 107 108 94
2.077149 3.742226 122.676895 143 142 137
3.031676 -16.003010 125.092094 67 34 13
-19.116573 -11.210628 117.950211 138 129 121
-47.933079 0.610177 123.604179 9 21 17
-44.045094 -13.937234 125.644577 37 39 24
-42.970062 23.976910 123.106117 30 31 27
-43.710480 -31.584496 128.017365 53 37 18
-43.062099 -31.583242 128.689697 143 146 132
-39.066826 2.421313 116.598564 123 84 50
-38.957737 -27.138012 125.333382 140 132 113
-39.396637 -27.285030 128.296173 24 5 3
-37.456341 1.533040 124.961708 77 64 48
-31.392853 -39.720478 126.629082 20 12 4
-32.838486 0.066798 122.476784 11 9 14
-30.054173 -1.286670 121.053703 27 15 6
-34.005077 25.022387 127.048454 46 48 47
-34.679958 32.042316 127.149620 105 92 73
-29.827745 0.753687 120.873550 147 135 119
-28.828773 -2.144394 119.722160 146 134 122
-32.903328 29.294340 125.673119 21 20 18
7.363222 -54.436405 138.006592 15 2 0
-31.725822 23.922255 125.068146 7 2 0
-26.057201 -5.876071 119.585693 34 1 0
-23.766747 -0.850849 118.455467 34 26 9
-23.280722 -1.283989 118.626778 12 12 13
-23.280722 -1.283989 118.626778 241 240 220
-23.635111 2.656170 118.838257 6 2 1
-10.278013 70.613983 140.972382 122 106 91
-22.519653 0.272177 118.303299 104 100 88
-28.748650 3.636068 120.101372 113 114 109
-20.828735 -3.191579 117.243416 228 241 232
-5.430801 2.044690 117.041039 55 42 34
-20.663059 -3.670408 118.446632 97 81 65
-20.665594 -2.877687 118.866173 23 10 4
-20.863989 1.757276 119.085571 97 81 65
-20.105009 -5.182422 117.453911 21 17 14
-22.221771 -31.564552 122.653900 103 96 71
-17.867056 -10.981191 117.716103 213 232 228
-17.867056 -10.981191 117.716103 87 41 0
18.894335 -12.594089 133.767532 22 27 30
-16.147779 -5.208750 116.731194 134 68 19
-15.436211 -0.896428 117.200569 153 97 39
-13.298139 -42.264042 127.772430 32 62 51
-13.738130 -0.604285 117.234924 124 125 110
-12.547891 -0.862287 115.011353 10 12 9
-8.093498 -41.349720 126.960777 87 84 65
-8.085645 -16.855707 123.734680 79 2 15
-3.450955 -1.912616 118.813377 125 119 105
2.039748 -39.238819 130.232086 141 108 81
-33.608307 -0.326737 122.612923 58 58 57
-25.922169 -4.655330 120.167274 149 162 157
-26.543749 0.805803 119.261848 228 214 210
2.468606 1.220386 9.711056 71 75 78
-20.387018 -4.152719 117.490860 145 153 140
-28.242130 -32.623405 123.028305 120 122 110
-12.470183 -0.837542 118.226128 46 94 77
2.847748 -32.764439 127.084274 18 4 1
-17.061232 -5.325565 117.077293 176 203 204
-16.696735 -4.235679 116.923866 74 17 0
-16.097216 -1.694083 118.935196 189 190 185
-15.033698 -3.592066 117.551437 75 40 15
13.824542 34.762833 135.286041 121 79 47
-1.216460 -13.455200 118.975403 14 5 0
7.571761 18.108711 128.315857 118 64 37
-3.807636 -1.489371 118.331352 127 121 107
-4.154557 17.554043 122.158951 97 39 10
2.242817 -33.692001 128.668427 146 74 19
-0.007627 22.554428 124.915642 249 255 255
-5.359940 91.233086 146.737000 85 73 57
5.113954 4.968501 124.833427 255 255 254
9.380134 -35.660381 129.773697 170 158 141
6.925377 -11.696980 120.836182 196 206 207
7.509953 16.862461 126.778313 200 147 115
7.662587 9.219802 126.443077 146 88 63
8.377417 13.017129 126.957359 191 199 199
15.179642 -32.850334 130.991699 22 27 30
-12.609679 -3.551749 118.141876 238 255 255
5.024826 27.530676 129.624390 199 212 220
5.687287 27.255186 128.788620 36 22 13
7.811640 -12.607650 31.807335 171 157 145
17.441139 -33.084812 133.003204 18 18 18
17.906971 -32.413990 133.515488 100 55 26
18.598740 -31.934502 135.207520 248 249 241
17.137493 -12.661154 132.983124 17 14 8
14.763942 33.817497 136.923935 189 131 73
14.763942 33.817497 136.923935 136 137 139
3.506982 -34.847733 128.349213 187 195 205
2.718932 4.323303 122.212181 252 214 147
9.171351 0.359051 127.539856 107 100 92
15.883510 -31.094786 131.626053 38 43 47
19.030748 3.385231 133.555267 31 12 4
-42.492371 -30.759041 128.189804 66 73 52
-30.627131 -36.418884 125.009872 33 35 30
22.872978 3.821009 138.805771 27 11 1
23.567436 10.138880 139.551605 117 70 39
25.509264 -8.920264 140.569382 106 66 33
26.864531 -20.315613 140.016754 71 72 76
-39.017120 70.539734 124.729988 119 89 53
22.322777 8.931596 139.081528 86 82 71
-34.319813 73.575638 131.811508 74 74 67
-13.924138 -28.982264 120.671547 253 249 243
6.684426 32.568203 132.327026 8 10 9
-42.727825 33.563263 122.410721 19 22 16
14.202922 36.946121 135.482712 69 72 73
-32.221447 28.467834 128.849518 195 151 105
-4.532104 45.928223 129.550079 196 202 221
-47.706970 48.052002 115.431587 170 179 180
-52.819889 -62.185867 127.917679 115 103 91
-48.359978 45.710423 117.990753 109 101 87
-48.827515 45.437382 119.271049 101 96 81
-48.162434 47.483936 117.901489 17 15 16
-47.096085 48.597496 115.664650 77 75 71
-46.256123 52.133621 113.684433 121 120 102
-48.206661 45.531723 119.425156 32 27 15
-47.973202 48.478268 118.933830 88 82 74
-48.032990 44.287384 119.142838 52 42 32
-48.677525 46.753498 121.588730 73 78 71
-46.490757 51.660973 116.206696 39 54 55
-47.113247 70.152191 118.082207 75 83 82
-48.693241 50.813080 122.132629 48 41 35
-52.437290 -62.359318 131.603455 25 15 5
-51.525986 -61.084694 132.757935 131 122 107
-47.316250 54.668110 119.695412 112 106 94
-46.030785 68.602165 116.761696 145 142 131
-47.969273 47.813541 121.598999 254 254 250
-44.297852 67.456604 114.234886 83 82 82
-45.902821 45.973034 118.863724 41 42 34
-45.194843 68.806503 117.409653 140 137 122
-46.167339 54.566071 120.692238 121 108 92
-47.468513 -3.313170 124.016632 106 100 86
-47.575706 47.378510 125.387688 120 134 118
-50.851044 -60.948273 134.429916 93 97 100
-47.793152 92.670685 126.876442 127 118 101
-45.415695 33.817520 120.522705 100 95 75
-45.421539 -2.676086 121.870285 15 17 14
-45.421539 -2.676086 121.870285 133 120 104
-45.578293 53.752926 122.945572 17 24 20
-44.888439 -2.173084 121.445564 151 152 138
-47.643597 -23.831553 129.833069 94 106 95
-47.643597 -23.831553 129.833069 43 37 25
-44.646080 46.596115 122.952469 79 65 49
-43.451492 0.616658 120.188057 76 54 37
-43.813789 37.313240 121.596397 132 126 112
-47.795235 -59.720409 133.201721 16 25 17
-44.032921 -3.707552 123.333176 74 53 34
-45.004227 -38.595676 126.133537 134 120 102
-44.019440 47.197433 124.004868 156 157 141
-43.666210 41.772881 122.981689 59 68 60
-45.437195 -42.436108 128.429016 67 80 76
-42.640701 34.461582 121.992012 38 46 43
-44.086628 -25.555841 127.147522 24 28 23
-45.581409 -36.279453 131.671661 136 144 131
-45.572094 -42.756172 131.639328 12 16 12
-44.785381 -41.887413 130.461090 41 29 16
-41.103558 -59.341808 132.345764 148 142 127
-43.355762 -31.113777 128.746262 51 49 34
-42.172462 -38.866741 125.249397 48 51 44
-43.433594 -28.105785 129.475693 48 51 44
-58.088680 -51.877945 171.710083 81 83 71
-42.682819 -32.276394 127.810020 147 146 130
-41.686741 25.005257 125.130440 125 84 40
-42.166309 -27.000084 126.788788 57 59 46
-42.577335 -27.899393 128.921707 35 33 17
-41.583599 25.701923 126.554588 156 160 144
-41.364883 -28.699091 126.480858 75 86 70
-41.630882 87.138344 127.837471 94 83 65
-40.874985 -26.524263 125.506363 155 114 74
-43.346046 -50.955601 133.346634 25 13 5
-41.918549 90.663193 129.344406 139 150 133
-40.879082 82.721848 127.181389 115 106 89
-41.486492 -42.586136 129.704117 52 32 13
-40.698307 -25.077795 127.207130 103 96 78
-40.698307 -25.077795 127.207130 109 102 84
-40.575249 -38.117817 127.457504 56 61 54
-39.652733 62.298470 125.375099 56 61 54
-38.889069 19.580935 125.377281 109 116 100
-41.290497 99.840004 135.458084 89 78 60
-38.568661 -47.070835 127.925407 127 130 114
-39.772327 93.072746 131.940094 103 98 79
-39.772327 93.072746 131.940094 127 130 114
-40.833332 -62.586300 135.861877 106 100 84
-37.452095 -12.530277 124.723969 106 100 84
-40.735062 -61.735031 136.220932 111 49 3
-39.081783 -49.284359 130.878006 23 14 13
-40.382271 -61.945068 135.291306 138 125 106
-36.463680 -33.535896 122.629791 33 44 21
-37.001545 -13.015234 124.683411 142 129 110
-36.725178 21.232548 123.800224 79 63 47
-37.248367 71.920441 126.560204 88 82 65
-37.216068 72.360161 128.875961 175 115 53
-34.828854 -0.048511 121.503777 130 79 30
-38.355896 -61.772968 135.815201 45 30 12
-36.498787 56.667377 129.626373 8 12 13
-35.885025 25.607759 128.714386 24 19 19
-40.348972 -94.901184 145.457047 8 12 13
-38.256809 -62.795418 138.468567 227 188 151
-40.735291 -94.906830 148.407104 58 58 57
-34.723186 27.870943 127.825111 19 6 1
-37.006348 101.158073 138.712860 13 12 10
-34.023006 71.816803 128.378082 64 47 46
-3.381602 1.481578 24.903738 149 162 153
-32.903328 29.294340 125.673119 139 136 125
-33.773808 59.372768 130.713547 74 74 67
-31.925726 28.533211 123.540138 172 120 63
-31.823864 -0.059144 123.196678 140 141 127
-33.181679 58.534554 129.736282 153 102 47
-37.348675 -93.551926 146.873413 151 141 144
-31.579899 28.912859 125.680534 104 77 68
-37.344372 -94.994080 149.161591 34 38 36
-37.344372 -94.994080 149.161591 146 131 112
-30.942532 -35.796852 123.985023 94 62 29
-33.776989 95.059013 137.123352 172 175 158
-35.587372 -91.014603 145.167038 85 78 67
-31.897938 61.022530 130.738602 220 212 223
-33.182636 97.091217 136.320221 157 143 124
-29.344629 -1.371145 120.558876 53 57 43
-29.878263 -35.492668 123.434509 66 74 71
-29.367786 -0.041578 122.097054 173 177 162
-29.516752 -36.076252 124.296417 113 114 109
-30.978220 62.587185 132.265778 234 235 240
-29.339197 -36.300655 125.502609 25 16 11
-32.107063 99.242027 139.129120 128 135 120
-29.481012 -40.193943 128.105850 163 155 138
-28.033304 48.067619 122.652733 229 243 241
-27.304573 0.067226 120.047813 15 16 18
-26.134432 -1.750457 118.638618 19 12 15
-27.721428 -39.228897 126.057411 207 154 103
-28.341261 -40.646160 128.899475 253 222 188
-26.114151 -0.444991 119.593185 19 18 15
-27.013256 -34.823227 124.286568 76 86 77
-26.014397 25.866556 121.982567 101 72 56
-26.498829 -32.656242 124.305351 171 183 171
-28.336329 72.111755 133.388306 111 87 75
-26.512224 -38.197643 125.498062 28 34 27
-25.887417 -34.435143 123.785690 25 27 26
-24.860966 -0.425828 118.990364 220 232 228
-24.662954 1.548300 118.902573 90 89 86
-28.898582 98.572823 139.735718 240 254 255
-24.344736 -4.881459 119.054176 170 185 180
-26.753670 56.364937 131.498032 21 13 9
-25.203119 -38.884651 125.784134 72 71 65
-23.591738 0.078756 118.008522 12 11 7
-25.872919 57.601765 131.890366 239 254 255
-26.704876 89.626373 139.079193 173 117 65
-23.051928 18.787306 119.762520 69 73 72
-22.146811 -6.537049 115.103699 245 240 232
-25.255703 56.736828 132.098862 245 240 232
-22.689972 -1.357138 119.458076 31 16 9
-24.374161 52.879055 129.904831 16 18 14
-22.019344 0.391088 118.174492 208 198 176
-22.075151 20.177509 120.772972 11 11 9
-24.760580 72.774467 136.886490 235 231 213
-24.760580 72.774467 136.886490 177 190 183
-20.640999 0.716265 116.211632 28 10 1
-20.755562 -4.998667 117.424942 82 81 81
-20.755562 -4.998667 117.424942 20 14 7
-24.890802 -77.869926 141.831085 80 72 69
-24.890802 -77.869926 141.831085 123 91 97
-20.695282 -6.296620 117.822762 123 91 97
-0.457314 7.461615 24.543957 121 123 143
-24.207058 97.177238 142.693802 122 90 93
-24.207058 97.177238 142.693802 97 11 13
-23.287067 76.498894 137.170227 220 234 230
-23.287067 76.498894 137.170227 64 51 37
-19.897654 -3.765960 117.074638 146 140 126
-21.936089 -43.978664 129.257294 146 140 126
-20.962315 -30.992517 125.033890 213 230 222
-19.529835 -29.250933 118.000565 214 227 219
-20.941223 -33.987366 125.958618 149 162 153
-20.941223 -33.987366 125.958618 128 81 40
-23.837664 103.817070 144.330826 143 159 151
-19.547501 0.944851 118.640808 104 124 114
-20.742283 -38.294212 127.055191 135 151 145
-3.882280 -5.330240 23.249048 104 97 79
-23.769903 109.075966 147.563370 241 255 255
-20.100630 -34.379704 124.646385 222 241 236
-20.047411 -37.099770 125.922623 219 235 224
-18.620140 -3.507197 117.535576 211 141 74
-19.464901 -25.866816 123.282669 240 255 253
-18.771963 -10.715056 119.081062 236 248 252
-19.907841 26.421520 126.479263 148 102 57
-19.432280 -33.469158 124.172989 209 228 222
-18.293125 -4.401921 118.011200 140 75 12
-19.152557 24.394541 123.651886 16 22 20
-18.847225 -37.069866 124.824646 126 128 124
-21.276764 93.421684 143.907440 219 151 80
-18.210779 -37.232357 124.892059 215 147 80
-20.346809 84.172142 142.515427 115 48 1
-16.696735 -4.235679 116.923866 240 255 255
-17.674686 -33.110462 124.018242 152 83 23
-16.788952 -11.578345 118.695953 198 149 108
-17.237022 -33.705330 123.538223 198 149 108
-16.147779 -5.208750 116.731194 25 17 12
-15.934219 -0.181112 115.507179 204 153 106
-19.642488 84.224998 143.020584 179 103 44
-16.025372 -2.565747 117.124870 179 103 44
-19.892303 107.124847 146.187195 214 149 87
-17.109493 -37.369251 126.004196 157 184 198
-15.969094 1.026666 117.751053 138 137 125
-15.667253 -2.916543 116.091698 146 139 120
-16.690460 -34.169338 126.110489 153 97 39
-17.052034 52.500423 131.192993 60 19 8
-15.475892 -11.489702 119.170235 114 111 97
-17.101274 54.442238 132.624405 206 231 227
-18.600077 87.832947 144.568741 120 120 118
-16.039337 -36.766209 124.799278 89 90 92
-15.473982 -32.291111 121.519981 8 9 11
-15.473982 -32.291111 121.519981 55 62 69
-15.772649 60.768017 124.160774 241 255 255
-14.357477 -2.795110 116.573471 153 171 161
-14.300158 0.314464 116.588158 63 62 60
-17.125204 88.337288 142.940369 63 62 60
-17.202568 87.844688 143.925156 182 180 171
-14.883071 -36.699608 125.411697 215 151 89
-13.932090 -2.832772 117.331367 119 144 149
-15.482553 48.801529 131.334106 66 75 83
-16.846916 89.682083 145.840286 235 255 254
-14.222878 -35.643795 123.370209 17 17 17
-13.347305 10.176985 118.001099 208 231 233
-12.949680 1.226126 116.877052 128 127 120
-13.754847 -36.148552 125.466171 140 157 147
-13.768503 -35.606850 125.600014 159 188 191
-12.636065 -1.480883 116.543251 153 167 173
-12.676484 -0.915894 117.522659 161 191 194
-12.668075 -24.336828 120.220177 205 210 201
-14.326632 58.168221 136.767929 32 73 58
-12.791217 -25.983345 122.373848 205 184 172
-13.054236 -37.319496 126.696922 188 208 205
-12.359286 -35.343044 124.458061 77 79 64
-12.565006 -36.996964 127.529778 154 176 174
-11.478420 -26.562853 122.315300 235 252 248
-11.186006 -24.638611 122.283722 242 190 131
-10.282557 -3.929130 114.348335 64 57 49
-12.591224 60.739220 142.486130 147 160 151
-10.271459 -1.063732 117.709160 177 176 156
-12.666356 98.232903 148.566528 168 175 168
-9.904669 -2.453085 116.782173 60 21 10
-10.215115 -24.517853 122.643555 133 130 121
-9.811747 -1.980589 117.714020 128 127 130
-10.006689 26.475588 123.543335 130 111 80
-9.573211 -22.588669 119.841141 100 50 19
-9.891062 -28.149462 124.131836 33 27 21
-9.804317 -27.197268 123.201187 130 75 36
-9.804317 -27.197268 123.201187 119 90 63
-9.096727 16.260149 118.421738 128 112 96
-9.096727 16.260149 118.421738 128 112 96
-9.364205 -26.984394 123.628304 49 39 35
-9.083915 -25.241369 122.102966 20 22 26
-8.585971 -1.291395 115.880531 20 22 26
-9.653115 55.096085 133.853821 140 124 101
-9.552550 49.874599 133.619080 93 96 94
-8.845290 41.907166 127.591537 144 166 181
-8.845290 41.907166 127.591537 80 89 94
-8.059793 -0.590746 116.408134 86 80 68
-8.023962 -23.179506 119.612709 86 80 68
-7.786220 -0.258026 117.739891 153 165 177
-8.227896 -34.084103 125.799965 148 152 141
-7.897094 -22.839766 120.718758 171 151 115
-8.314449 -41.189983 128.163696 87 84 65
-8.984133 59.344498 141.326340 232 163 86
-7.340558 -24.399357 121.056595 173 187 187
-7.482018 -24.127495 123.555954 254 255 255
-7.476566 -28.887447 124.049850 254 255 255
-7.476566 -28.887447 124.049850 145 45 57
-7.400337 -29.922258 122.954376 53 37 11
-7.007961 -26.933750 121.799324 217 145 113
-7.771005 -58.351448 135.780746 146 151 138
-6.670225 -23.910448 118.871239 236 116 108
-6.905129 -27.300207 123.745300 25 16 9
-6.904405 -28.221624 124.026817 137 121 97
-6.954662 -55.878189 131.998062 85 75 62
-7.474513 104.641968 149.332977 100 87 75
-6.157803 -25.928387 123.107956 84 16 2
-5.803803 -23.492735 121.640366 36 39 46
-6.574897 96.950912 147.181442 87 82 78
-6.574897 96.950912 147.181442 247 205 89
-5.370468 -22.643644 122.928680 147 132 98
-6.396328 81.497566 149.149811 72 68 57
-5.683658 -57.525585 136.340744 142 90 43
-5.710415 -61.788128 139.132462 73 42 23
-4.879491 16.455898 120.301880 121 115 101
-4.879491 16.455898 120.301880 104 106 101
-4.817493 -0.723347 118.477226 151 156 171
-4.865587 17.703939 120.415398 143 130 114
-5.148745 39.726734 128.208130 4 8 38
-5.831537 68.180450 145.745041 4 8 38
-4.445189 18.324034 121.689552 246 64 73
-4.405298 -35.045330 126.627235 113 109 98
-4.405298 -35.045330 126.627235 103 99 88
-4.608345 -57.369202 135.485046 10 10 12
-4.960799 78.412819 147.504501 71 71 56
-3.807636 -1.489371 118.331352 164 171 174
-4.551090 71.498138 144.123428 238 96 95
-3.998311 -55.302208 131.674698 135 133 121
-4.458601 89.644989 145.821625 128 125 116
-4.444040 88.346275 146.075287 132 128 117
-3.516768 0.946101 119.063126 185 193 208
-4.295506 62.136314 148.122208 101 97 88
-3.549184 -29.905420 121.970276 113 109 100
-3.554503 -34.764832 123.843857 163 15 6
-4.044656 94.444077 146.611893 80 91 90
-3.308335 21.180130 123.028709 135 34 16
-3.077636 12.013910 119.902504 30 23 17
-3.027914 16.517076 121.371727 188 136 84
-2.976540 15.450614 121.134727 253 245 240
-2.765953 16.554842 121.618477 56 19 6
-2.977731 -59.985519 137.345993 48 72 140
-2.594871 18.192822 121.848892 111 65 37
-2.454444 17.710876 121.691002 17 15 19
-2.641023 -56.552208 135.970490 9 8 79
-2.306130 5.456146 118.805595 9 8 79
-2.248067 4.336409 119.778732 169 176 192
-2.173132 15.366658 119.844620 3 12 9
-2.411385 -59.133026 138.281815 115 106 122
-1.464009 19.331423 123.805252 17 16 51
-1.449295 64.573586 146.867050 78 30 8
-1.062657 23.039600 125.771652 56 24 9
-1.074960 67.461037 148.775055 36 48 44
-1.007147 65.368622 146.468170 162 166 176
-0.788512 4.817286 117.082268 8 25 21
3.483481 -36.977356 87.305519 19 14 7
-0.477972 4.126867 118.564255 38 50 44
-0.157086 93.907280 145.792343 175 99 36
0.113277 66.168343 147.851044 84 36 10
0.113277 66.168343 147.851044 29 17 10
0.216990 -33.684021 125.919815 192 130 67
0.431916 -66.358665 139.351074 37 48 41
0.660966 -55.343212 135.747925 147 156 135
0.735982 66.459885 147.548172 189 203 204
0.879796 76.540436 149.124420 125 108 89
0.247387 34.431168 76.891953 176 185 179
0.913706 22.072224 124.297844 195 207 221
1.006385 6.208516 122.237221 42 54 50
1.206477 -11.924528 123.171539 63 72 74
1.250411 -10.475420 122.260620 188 122 66
1.682025 -58.915630 138.249008 19 5 2
1.800208 22.357897 125.537895 166 165 160
1.886236 24.856073 129.106644 137 123 111
2.020797 25.372753 127.794540 183 192 189
2.402581 74.746208 147.665039 186 126 71
2.635643 88.960060 145.241302 167 87 24
2.635643 88.960060 145.241302 254 255 255
2.635643 88.960060 145.241302 132 84 34
4.469777 130.194168 235.536926 249 254 255
2.354481 4.741435 119.842262 88 81 71
2.779068 -34.397011 129.072479 123 120 113
2.685467 -13.066534 123.900223 195 186 180
2.701983 4.263250 122.379250 109 96 88
2.812345 5.472960 119.722992 254 253 249
3.329721 -57.551704 136.171371 158 85 29
3.329721 -57.551704 136.171371 254 253 249
3.745112 82.922234 151.419495 202 180 167
3.227806 -13.650372 123.618340 163 172 183
3.541739 -38.303082 130.808075 210 141 65
3.632994 -38.377007 129.828796 114 107 99
2.468829 -34.587772 89.191826 47 27 19
4.300347 71.366280 150.943665 50 41 27
3.705232 -32.832272 129.161133 100 84 58
4.410047 72.645401 151.039078 45 37 25
4.071117 -34.260338 133.545578 45 37 25
4.392975 27.099003 129.740021 110 121 113
4.775658 -66.567764 139.526001 249 245 227
4.698582 -64.529045 136.544449 61 68 69
4.682107 -56.275208 134.144058 254 254 255
5.458628 72.523186 151.753937 99 92 82
4.719620 -13.619553 125.420486 133 126 119
4.730083 -13.029853 124.837395 253 253 255
5.024826 27.530676 129.624390 120 126 116
5.345095 -57.959229 135.218979 28 5 0
5.345095 -57.959229 135.218979 171 144 123
6.328002 87.486359 151.115158 104 97 89
6.511304 73.368858 153.506683 182 118 57
5.553308 -30.044352 129.735687 148 99 51
6.316961 -56.457268 135.607117 75 14 0
6.316961 -56.457268 135.607117 58 36 22
5.807296 5.969501 124.514069 104 105 110
7.063760 90.684395 148.048203 124 63 22
7.399488 73.329758 152.098907 178 190 199
6.446031 6.239532 124.775276 92 31 12
6.587533 7.279007 125.447624 51 59 57
8.072914 72.267944 152.852646 11 13 9
7.054864 10.502712 125.123505 41 7 1
7.101735 17.219929 125.457077 36 6 0
8.184646 49.242577 139.953888 53 61 57
8.837607 101.554253 145.923569 251 255 254
8.504169 -54.035351 136.025635 251 255 254
9.421380 92.384071 147.299606 101 97 88
8.487909 17.739174 128.328857 73 72 67
9.286630 -55.747082 135.790039 209 214 217
4.026956 28.649193 48.689571 163 150 130
9.780175 22.256903 133.030014 15 14 10
11.099303 88.122047 148.169434 40 19 9
10.279909 -54.845352 133.604614 137 121 98
11.080413 48.975639 143.082596 40 18 4
10.589032 -55.327885 136.412689 140 122 105
10.589032 -55.327885 136.412689 21 22 25
11.830767 72.528442 152.081116 86 78 76
11.109117 30.613110 134.868774 180 187 193
11.785520 -55.311363 135.063431 124 80 45
11.785520 -55.311363 135.063431 24 16 14
11.280406 0.319020 129.614197 174 157 132
11.366781 2.378756 129.261566 167 181 181
11.561325 23.226664 130.288925 173 181 180
12.229259 32.046211 136.367416 177 167 165
11.852402 -51.785950 131.079590 29 35 33
13.725369 71.878334 151.467834 83 72 66
12.962167 37.216835 137.607849 31 11 4
13.365753 41.473965 139.092255 152 136 119
12.302414 -0.012733 128.097900 177 191 192
12.679772 -28.494667 131.126282 11 13 11
13.486791 -56.680748 135.397263 72 67 62
13.787529 47.161041 137.448273 193 204 206
13.625783 33.909565 136.161255 46 57 59
15.410878 80.101143 153.585144 210 214 224
15.476868 79.800606 153.813034 16 9 7
15.468307 74.445511 151.150818 252 255 255
13.867402 -33.199501 132.359299 45 50 49
16.045574 81.159531 153.719788 121 73 34
14.071441 29.891062 133.915314 71 81 81
15.958187 78.860497 151.981293 99 51 16
14.230098 -33.816334 133.277161 99 51 16
14.098439 -27.502184 129.883759 111 50 21
16.227379 77.180779 149.399567 7 10 14
12.748421 -6.067019 116.820717 7 10 14
16.441845 76.464195 150.360977 156 124 101
15.231040 42.328083 137.284500 147 133 110
16.725880 85.411659 151.411987 20 24 25
16.280684 56.022617 145.410889 42 18 8
16.280684 56.022617 145.410889 17 21 23
17.114429 75.674904 152.078339 91 61 44
15.529029 26.251564 135.475998 106 96 95
16.640141 56.800613 144.883148 253 217 104
15.459014 24.736153 132.322113 14 10 4
16.128099 0.060474 136.444000 182 191 184
16.155647 -34.478451 133.500748 45 50 49
17.770138 50.521271 145.408752 7 9 8
16.154373 -30.555725 131.921707 72 73 78
15.846248 -28.599800 129.092728 176 149 126
16.628475 -13.900382 133.116821 231 230 230
18.786310 69.967796 149.995300 106 53 17
16.905325 24.241377 133.727676 106 53 17
17.079733 27.367630 134.449158 177 158 141
17.459841 25.299194 136.551056 93 46 6
17.561846 30.235025 136.862930 6 15 16
17.960102 39.160049 138.872864 16 6 4
17.759556 27.224655 136.275635 69 82 5
17.702490 0.080057 132.547775 188 123 62
20.187946 68.542480 147.944046 253 239 228
20.282696 56.257187 145.740417 248 226 211
19.702614 26.764822 140.213715 243 238 228
20.585827 47.158730 143.096481 121 96 75
18.716223 -32.596195 129.675201 187 127 76
19.188463 -34.707760 130.942825 196 206 206
20.597858 -12.925284 135.468674 245 244 240
20.976397 -14.895789 136.033875 113 90 79
22.209208 31.035690 143.846802 7 5 6
22.045351 27.505486 139.184280 255 253 248
21.959276 -3.765356 138.248245 168 152 129
22.203777 26.844425 139.465225 153 117 76
22.203777 26.844425 139.465225 33 16 5
21.875957 77.434540 137.794678 92 31 10
22.594439 -33.010525 141.094131 13 12 5
22.343630 -11.456624 139.485947 13 12 5
21.505898 46.506191 133.953110 17 12 7
22.652861 4.679044 140.777939 254 252 255
22.930565 30.436071 141.322601 218 220 217
11.299519 6.456873 45.705971 98 114 113
22.905161 20.149679 138.338150 177 118 60
22.974438 1.902151 138.172684 69 25 0
23.365742 19.120333 140.234604 110 121 118
1.064901 2.110903 7.428131 143 116 87
24.426146 48.430763 144.254852 151 124 107
24.715042 68.975197 144.802307 81 87 103
23.824907 -31.400646 138.972198 51 67 66
24.137758 -2.174318 139.609726 188 198 201
25.237774 82.539276 144.394592 92 57 33
25.415995 66.267372 143.468506 106 107 112
25.276499 -16.146496 140.531677 66 59 61
26.699707 65.923805 144.117340 20 16 13
26.596455 69.239105 143.463837 241 242 237
14.278773 29.249710 62.047894 153 137 122
27.239574 65.350861 145.221985 149 149 145
26.589087 69.446869 141.159515 244 233 222
26.889599 45.725933 141.439346 66 69 74
26.889599 45.725933 141.439346 66 69 74
27.660578 54.036304 144.794083 18 21 26
2.565223 -0.361112 9.019740 99 105 103
3.456498 0.791445 8.967126 135 147 173
-43.626137 -25.643227 126.335258 149 151 131
27.336845 68.657539 140.428543 57 31 13
-21.014193 -29.804432 124.036690 76 84 82
-47.780266 -0.463865 123.343903 5 12 5
-15.583088 -4.883737 117.445984 198 195 190
5.957594 -2.471313 13.045883 141 138 147
2.908134 -11.517948 123.944824 158 85 29
0.000000 0.000000 0.000000 255 0 0
4.928463 -0.833763 0.122851 255 0 0
