ply
format ascii 1.0
element vertex 1192
property float x
property float y
property float z
property uchar red
property uchar green
property uchar blue
end_header
-0.040098 0.005142 -0.431998 187 198 195
-0.039945 -0.000662 -0.453780 34 67 27
-0.039982 -0.000696 -0.453766 142 177 123
-0.028980 0.009567 -0.387409 192 199 191
-0.039948 -0.000661 -0.453779 158 190 146
-0.039871 -0.000687 -0.453805 120 102 86
-0.040062 -0.000620 -0.453745 53 60 42
-0.039655 0.006530 -0.424014 187 206 201
-0.040005 -0.000596 -0.453755 56 73 47
-0.039947 -0.000581 -0.453758 80 92 73
-0.039946 -0.000582 -0.453758 172 190 168
-0.041274 -0.000911 -0.452751 62 48 43
-0.039462 0.007119 -0.420341 189 207 197
-0.039668 -0.000697 -0.453876 203 194 183
-0.040107 -0.000644 -0.453740 229 218 214
-0.039942 -0.000583 -0.453758 67 82 57
-0.646926 -0.085002 0.037481 98 84 81
-0.040206 -0.000767 -0.453624 22 56 15
-0.036282 0.009257 -0.402007 62 85 77
-0.039995 -0.000554 -0.453754 69 99 63
-0.039995 -0.000554 -0.453754 69 99 63
0.175735 0.096164 2.005205 213 222 220
-0.040160 -0.000761 -0.453663 55 86 45
-0.039899 -0.000590 -0.453739 70 92 66
-0.039968 -0.000650 -0.453771 69 85 55
-0.039928 -0.000664 -0.453786 71 84 64
-0.039940 -0.000581 -0.453757 174 194 163
-0.039940 -0.000581 -0.453757 174 194 163
-0.040028 -0.000629 -0.453751 32 69 30
-0.039993 -0.000637 -0.453407 82 57 43
-0.039988 -0.000643 -0.453763 18 53 12
-0.039976 -0.000695 -0.453768 21 35 15
-0.025694 0.252146 4.570417 200 225 233
-0.040130 -0.000749 -0.453711 45 58 39
-0.040667 0.007221 -0.420705 163 177 179
-0.040667 0.007221 -0.420705 163 177 179
-0.038805 0.008968 -0.407737 160 180 162
-0.039960 -0.000510 -0.453742 97 99 91
-0.014343 0.014497 -0.315763 225 235 226
-0.039920 -0.000665 -0.453789 44 63 33
-0.040293 -0.000783 -0.453569 40 73 33
-0.039968 -0.000698 -0.453767 61 77 53
-0.039947 -0.000565 -0.453752 43 48 25
-0.039940 -0.000579 -0.453756 187 202 178
-0.038610 0.009905 -0.401018 168 192 187
-0.057366 0.105849 0.629649 62 74 70
-0.058411 -0.007976 -0.327291 57 72 62
-0.039947 -0.000575 -0.453755 179 193 181
-0.034610 -0.001331 -0.430343 226 221 227
-0.090508 -0.174430 0.595794 182 162 165
-0.039898 -0.000648 -0.453791 162 200 158
-0.039977 -0.000542 -0.453490 59 93 51
-0.039977 -0.000542 -0.453490 59 93 51
-0.054010 -0.019332 -0.320369 201 220 224
-0.039960 -0.000557 -0.453751 91 93 78
-0.039960 -0.000557 -0.453751 91 93 78
-0.037069 0.011112 -0.389618 194 219 223
0.298520 0.117126 2.861058 74 86 66
0.298520 0.117126 2.861058 74 86 66
-0.039952 -0.000571 -0.453754 68 80 63
-0.039951 -0.000571 -0.453754 147 161 147
-0.039960 -0.000655 -0.453470 218 205 198
-0.040087 -0.000750 -0.453751 58 93 51
-0.040087 -0.000750 -0.453751 58 93 51
-0.034146 0.071677 0.375527 205 225 226
-0.040042 -0.000715 -0.453634 132 111 108
-0.200562 -0.659078 3.585349 34 26 28
-0.039927 -0.000532 -0.453726 110 98 99
-0.039927 -0.000532 -0.453726 110 98 99
-0.000741 0.120380 1.716398 216 237 238
-0.039980 -0.000555 -0.453753 65 91 53
-0.039922 -0.000686 -0.453786 78 60 58
-0.039969 -0.000512 -0.453747 62 84 56
-0.039820 -0.000693 -0.453765 203 188 161
-0.039734 -0.000732 -0.453944 138 140 135
4.352716 0.450076 30.386726 66 45 42
-0.040170 -0.000204 -0.452782 213 220 206
-0.039815 -0.000699 -0.453822 51 72 37
-0.039923 -0.000576 -0.453628 40 74 37
-0.040016 -0.000625 -0.453754 37 73 37
0.065681 0.097169 1.709098 190 205 208
-0.106094 -0.266095 1.243327 203 185 182
0.342385 0.123808 3.118595 212 217 210
-0.019810 0.101506 1.071867 215 236 239
-0.039871 -0.000663 -0.453804 73 87 65
-0.039936 -0.000653 -0.453782 62 56 46
-0.040024 -0.000601 -0.453752 40 67 36
-0.039874 -0.000675 -0.453807 31 57 23
-0.039734 -0.000732 -0.453942 232 217 220
-0.039939 -0.000561 -0.453748 98 112 92
-0.039939 -0.000561 -0.453748 98 112 92
-0.039796 -0.000705 -0.453823 221 208 182
-0.039807 -0.000698 -0.453831 206 202 189
-0.040034 -0.000615 -0.453750 59 94 61
-0.039971 -0.000517 -0.453748 46 73 42
-0.039962 -0.000547 -0.453749 77 105 80
-0.035911 0.014841 -0.356971 197 223 224
-0.064475 0.064230 -0.012940 59 75 60
-0.039911 -0.000660 -0.453791 65 98 57
0.004035 0.054280 0.363033 159 178 171
0.224400 0.096504 2.031195 79 87 74
-0.166301 0.321580 0.542272 45 27 38
0.213653 0.011007 0.835189 67 50 63
-0.033703 0.038530 -0.093882 202 222 228
0.100284 0.000086 0.327791 83 81 95
-0.038979 0.038833 -0.121818 76 91 84
-0.040113 -0.000651 -0.453739 78 89 71
-0.037931 0.016226 -0.350217 160 182 184
-0.055725 -0.020342 -0.251192 159 181 169
-0.040029 -0.000657 -0.453751 34 61 20
-0.040029 -0.000657 -0.453751 34 61 20
0.001306 -0.002060 -0.257292 113 100 117
-0.039887 0.037842 -0.138882 225 238 238
-0.060304 0.051111 -0.122812 174 200 197
-0.039736 -0.000735 -0.453938 82 56 54
-0.039950 -0.000551 -0.453748 97 110 90
-0.039946 -0.000553 -0.453747 65 72 59
-0.039945 -0.000646 -0.453777 45 75 29
-0.039945 -0.000646 -0.453777 45 75 29
-0.039943 -0.000554 -0.453747 73 80 72
-0.040053 -0.000596 -0.453751 79 71 57
-0.056009 -0.009752 -0.351246 49 61 58
-0.007180 0.045276 0.147375 177 195 195
0.019497 -0.085556 0.303499 51 42 27
-0.038779 0.033348 -0.183671 70 85 79
-0.057575 0.040799 -0.206912 162 176 177
-0.040223 -0.000207 -0.452682 25 38 13
-0.040112 -0.000649 -0.453742 82 84 67
-0.039894 -0.000664 -0.453798 64 83 45
-0.039776 -0.000707 -0.453848 64 44 25
-0.039907 -0.000581 -0.453742 196 190 194
-0.040048 -0.000404 -0.453257 213 217 202
-0.040132 0.055409 0.080397 228 246 250
-0.039791 -0.000702 -0.453822 88 74 54
-0.039977 -0.000707 -0.453711 233 218 215
-0.044371 0.059296 0.095995 212 225 231
-0.057228 -0.010199 -0.340952 176 187 183
-0.040119 -0.000713 -0.453416 217 198 192
-0.035567 0.021028 -0.299009 192 212 198
-0.040037 -0.000608 -0.453750 32 70 23
-0.039914 -0.000653 -0.453788 75 98 64
-0.039982 -0.000524 -0.453751 49 66 44
-0.039987 -0.000521 -0.453753 170 181 169
-0.047544 0.026435 -0.293000 67 72 66
-0.040053 -0.000721 -0.453743 45 78 39
-0.040053 -0.000721 -0.453743 45 78 39
-0.039933 -0.000600 -0.453764 177 200 174
-0.045001 -0.001404 -0.448832 242 224 223
0.025513 -0.026384 0.555124 69 70 46
0.072212 -0.043346 1.596662 56 70 45
-0.039732 -0.000740 -0.453922 60 46 33
-0.039902 -0.000615 -0.453664 179 186 169
-0.039902 -0.000615 -0.453664 179 186 169
-0.039934 -0.000600 -0.453765 30 49 28
-0.040131 -0.000699 -0.453734 69 76 60
-0.039933 -0.000697 -0.453766 89 78 76
0.023395 -0.027809 0.576095 192 191 169
-0.040050 -0.000716 -0.453744 50 82 45
6.950818 -2.383668 766.627747 205 218 226
0.019662 -0.029306 0.582714 79 79 58
-0.040318 -0.000409 -0.452654 101 85 63
-0.039880 -0.000629 -0.453773 107 115 99
-0.039880 -0.000629 -0.453773 107 115 99
-0.040309 -0.000424 -0.452683 202 191 168
-0.039940 -0.000601 -0.453765 64 82 50
-0.040077 -0.000675 -0.453782 51 93 54
-0.040031 -0.000664 -0.453750 64 86 60
-0.040480 -0.000772 -0.453187 89 65 65
-0.040356 -0.000420 -0.452571 224 206 185
-0.039958 -0.000683 -0.453776 169 187 162
-0.039914 -0.000619 -0.453774 62 84 53
-0.039991 -0.000583 -0.453756 62 73 51
-0.040002 -0.000578 -0.453755 41 67 30
-0.040037 -0.000574 -0.453339 219 213 188
-0.040037 -0.000574 -0.453339 219 213 188
-0.040297 -0.000745 -0.453347 136 115 114
-0.040140 -0.000535 -0.453098 193 174 158
-0.040140 -0.000535 -0.453098 193 174 158
-0.040014 -0.000655 -0.453756 39 71 34
-0.039877 -0.000640 -0.453786 205 217 195
-0.039909 -0.000625 -0.453777 54 79 50
-0.040008 -0.000592 -0.453404 213 202 191
-0.040008 -0.000592 -0.453404 213 202 191
-0.039734 -0.000734 -0.453942 53 80 47
-0.039860 -0.000651 -0.453749 197 210 188
-0.039922 -0.000681 -0.453788 159 169 149
-0.040051 -0.000641 -0.453745 63 91 61
-0.039885 -0.000638 -0.453786 49 74 45
-0.039734 -0.000734 -0.453942 155 155 155
-0.066885 -0.054218 -0.191914 42 36 32
-0.066885 -0.054218 -0.191914 42 36 32
-0.039921 -0.000678 -0.453789 21 48 11
-0.039959 -0.000665 -0.453776 171 203 163
-0.039732 -0.000729 -0.453947 44 33 33
-0.039923 -0.000677 -0.453789 57 78 47
-0.039912 -0.000701 -0.453702 172 192 163
-0.040092 -0.000716 -0.453728 68 97 70
-0.040051 -0.000612 -0.453748 39 74 38
-0.039996 -0.000728 -0.453817 61 96 62
-0.039870 -0.000683 -0.453807 157 187 162
-0.039945 -0.000635 -0.453531 186 204 163
-0.040092 -0.000716 -0.453728 68 97 70
-0.039952 -0.000567 -0.453753 59 78 56
-0.039980 -0.000518 -0.453751 70 79 68
-0.039918 -0.000630 -0.453779 180 199 160
-0.039870 -0.000683 -0.453807 157 187 162
-0.039947 -0.000565 -0.453565 51 79 44
-0.039913 -0.000688 -0.453788 95 75 74
-0.038450 0.005449 -0.429344 192 204 203
-0.037839 0.007458 -0.416494 191 188 181
0.049293 0.146459 2.992204 178 191 193
-0.040150 -0.000410 -0.453038 66 53 36
-0.040112 -0.000649 -0.453740 242 227 220
-0.040114 -0.000727 -0.453585 128 110 110
-0.049260 -0.001816 -0.437881 105 94 68
-0.040591 -0.000377 -0.452012 219 196 182
0.002405 0.002697 -0.095816 127 121 123
-0.039744 -0.001430 -0.453447 96 69 58
-0.039084 -0.001531 -0.452189 50 49 39
-0.040483 -0.000661 -0.452307 127 140 112
-0.040306 -0.000544 -0.452145 130 143 118
-0.040306 -0.000544 -0.452145 130 143 118
-0.003160 0.002851 -0.092996 17 27 4
0.001691 -0.001153 -0.098329 33 47 26
-0.040489 -0.000616 -0.452311 155 167 143
-0.040525 -0.000534 -0.452348 135 148 130
-0.040525 -0.000534 -0.452348 135 148 130
-0.040381 -0.000460 -0.452190 8 23 0
-0.040359 -0.002019 -0.451770 151 153 150
-0.040415 -0.001091 -0.452050 12 25 3
-0.003560 0.003016 -0.092489 162 176 144
-0.040418 -0.000930 -0.452140 23 35 11
-0.040425 -0.000858 -0.452178 149 162 134
0.004534 0.002498 -0.098365 60 46 45
-0.005955 0.005195 -0.092648 132 139 119
-0.040275 -0.000823 -0.452063 180 166 155
-0.003066 0.005162 -0.092528 19 29 7
-0.040402 -0.000491 -0.452208 8 21 3
-0.040402 -0.000491 -0.452208 8 21 3
-0.002977 0.004297 -0.092365 161 172 142
-0.050543 -0.014587 -0.443638 161 157 169
-0.040459 -0.000431 -0.452243 187 198 156
-0.040459 -0.000431 -0.452243 187 198 156
-0.040447 -0.000450 -0.452238 134 145 104
0.006278 0.003975 -0.097900 29 28 3
-0.005887 0.004928 -0.091867 28 36 13
-0.002628 0.004103 -0.092836 144 153 129
-0.004848 0.004820 -0.091996 187 198 189
-0.039628 -0.001834 -0.452234 21 53 17
-0.040396 -0.000622 -0.452201 119 129 102
-0.003176 0.004689 -0.092678 159 170 136
-0.004395 0.004636 -0.092455 129 137 101
-0.040636 -0.000309 -0.452324 164 175 140
0.005544 0.001549 -0.098629 95 84 82
-0.002155 0.003729 -0.093519 174 156 154
-0.040401 -0.001365 -0.451848 179 169 162
-0.040411 -0.001413 -0.451821 179 168 159
-0.005287 0.004462 -0.091729 23 32 11
0.006411 0.001156 -0.097381 63 42 39
-0.039098 -0.001537 -0.452210 238 230 222
-0.040474 -0.000678 -0.452292 16 29 4
-0.003190 0.008188 -0.094453 142 148 148
-0.040559 -0.000477 -0.452372 130 144 112
-0.040559 -0.000477 -0.452372 130 144 112
-0.040457 -0.000457 -0.452248 27 33 10
-0.004430 0.005588 -0.091936 21 28 19
-0.040366 -0.000886 -0.452098 154 141 131
-0.050599 -0.017161 -0.425234 62 59 66
0.445458 -1.372992 3.366101 37 56 51
-0.040419 -0.000411 -0.452207 16 27 2
-0.040719 -0.000306 -0.452400 149 163 141
-0.040585 -0.001851 -0.451706 200 218 201
0.002294 0.007272 -0.094304 75 78 92
-0.039201 -0.001505 -0.452274 25 58 24
0.001224 0.005442 -0.097277 254 254 254
-0.040144 -0.001842 -0.452017 154 146 142
0.000519 0.008620 -0.098856 60 71 54
-0.039751 -0.001655 -0.452115 47 70 41
-0.040600 -0.000402 -0.452376 162 173 141
-0.008682 0.003794 -0.096801 88 94 115
-0.050543 -0.014587 -0.443638 161 157 169
-0.040475 -0.000413 -0.452251 183 185 160
-0.000777 0.000201 -0.097733 199 185 167
-0.040505 -0.001773 -0.451617 167 149 151
-0.039945 -0.021268 -0.420449 52 59 53
-0.040466 -0.000690 -0.452278 10 21 5
-0.020554 -0.025639 0.350787 184 174 165
-0.039084 -0.001531 -0.452189 50 49 39
-0.152742 0.198568 0.562215 146 144 156
-0.040668 -0.000076 -0.453766 78 93 74
-0.040368 -0.000860 -0.452110 179 169 159
-0.040684 -0.001552 -0.452751 148 174 163
-0.040371 -0.000833 -0.452123 150 143 127
-0.040380 -0.000801 -0.452143 142 142 118
-0.040292 -0.001775 -0.451966 58 36 25
-0.040462 -0.001436 -0.451881 143 156 135
-0.039879 -0.001905 -0.452147 63 49 46
-0.040399 -0.000773 -0.452171 165 164 144
-0.039039 -0.001288 -0.452076 44 73 45
-0.040466 -0.000690 -0.452278 10 21 5
-0.040381 -0.000538 -0.452194 19 27 3
-0.039094 -0.001552 -0.452195 58 62 56
-0.040477 -0.000721 -0.452303 18 29 11
-0.039088 -0.001532 -0.452197 78 72 60
-0.059242 -0.028168 -0.405406 205 198 204
0.141243 -0.131119 0.355273 48 43 23
-0.040449 -0.002021 -0.451660 171 179 181
-0.040483 -0.000661 -0.452307 127 140 112
-0.040306 -0.000544 -0.452145 130 143 118
-0.040127 -0.001845 -0.451956 89 69 60
-0.040418 -0.001052 -0.452079 8 20 1
-0.122340 -0.108971 -0.234726 199 195 209
-0.040618 -0.000378 -0.452377 145 158 129
-0.040628 -0.003410 -0.450712 121 131 123
0.196573 -0.100078 0.356297 209 201 180
-0.041243 -0.002522 -0.450699 208 213 181
-0.040424 -0.000460 -0.452221 152 158 130
-0.040458 -0.000767 -0.453099 192 206 196
-0.056466 -0.024577 -0.414277 205 198 206
-0.040091 -0.001861 -0.452007 84 66 63
-0.040530 -0.000389 -0.452290 144 156 118
-0.041101 -0.002592 -0.451076 179 182 197
-0.041101 -0.002592 -0.451076 179 182 197
-0.003895 -0.000421 -0.097937 24 25 20
-0.040405 -0.000644 -0.452206 147 154 123
-0.040114 -0.001838 -0.451956 68 51 44
-0.040423 -0.001470 -0.451790 174 163 154
0.258666 0.059279 0.053684 226 206 186
-0.004203 -0.000718 -0.093831 203 193 202
-0.040585 -0.000491 -0.452433 148 159 129
0.003967 0.004480 -0.098372 41 59 33
-0.040542 -0.000562 -0.452397 118 131 103
-0.040614 -0.000315 -0.452310 168 176 139
-0.040415 -0.001516 -0.451753 135 135 143
-0.042137 -0.005207 -0.449339 16 22 26
-0.040588 -0.000529 -0.452553 232 202 199
-0.033385 -0.022104 -0.076042 48 48 53
-0.033385 -0.022104 -0.076042 48 48 53
-0.040444 -0.001302 -0.451959 125 139 103
-0.041274 -0.000896 -0.453515 116 113 130
-0.040463 -0.000758 -0.452270 7 19 0
-0.039896 -0.001871 -0.452130 83 74 75
-0.039477 -0.001666 -0.452251 44 54 32
-0.194894 0.324202 0.535882 154 156 164
0.000093 -0.089892 0.069380 206 179 168
-0.039960 -0.001917 -0.452106 72 58 55
-0.039502 -0.001619 -0.452234 42 64 36
-0.039642 -0.001627 -0.452171 66 89 64
-0.039642 -0.001627 -0.452171 66 89 64
-0.040218 -0.001839 -0.451914 194 192 176
-0.039935 -0.001735 -0.452020 99 84 81
-0.039859 -0.002045 -0.452156 157 187 151
-0.040433 -0.001983 -0.451691 150 182 141
-0.039544 -0.001691 -0.452234 184 162 157
-0.039875 -0.002045 -0.452149 140 169 128
-0.039875 -0.002045 -0.452149 140 169 128
-0.039055 -0.001084 -0.452095 165 182 160
-0.039869 -0.001718 -0.452062 81 92 69
-0.039084 -0.001188 -0.452268 79 73 57
-0.008712 -0.057586 0.057422 224 207 187
-0.008712 -0.057586 0.057422 224 207 187
-0.040441 -0.000902 -0.452195 158 173 136
-0.040020 -0.001921 -0.452072 92 81 73
-0.039910 -0.001326 -0.452671 218 207 172
-0.039910 -0.001326 -0.452671 218 207 172
-0.039056 -0.001022 -0.452132 55 74 54
-0.040430 -0.001091 -0.452080 163 181 141
-0.039061 -0.000982 -0.452150 198 190 182
-0.040428 -0.001925 -0.451615 213 198 198
-0.040428 -0.001925 -0.451615 213 198 198
-0.039204 -0.001119 -0.452283 222 216 218
-0.039262 -0.000856 -0.453607 74 48 30
-0.039980 -0.002037 -0.452097 63 60 37
-0.039973 -0.001925 -0.452100 68 59 55
-0.039219 -0.000718 -0.453796 209 196 157
-0.039257 -0.001286 -0.452272 45 64 35
-0.039710 -0.001658 -0.452143 58 85 52
-0.040364 -0.000015 -0.453729 186 210 197
-0.040066 -0.002022 -0.452042 51 62 41
0.238346 -0.077338 0.354924 197 176 176
0.051725 -0.124963 0.073163 52 83 43
-0.039998 -0.002042 -0.452085 72 70 50
-0.040192 -0.001847 -0.451875 79 58 55
-0.039043 -0.001227 -0.452071 162 193 161
-0.039166 -0.001302 -0.452279 41 69 36
0.001814 -0.149152 0.050956 69 70 54
-0.040063 -0.002027 -0.452044 165 182 153
-0.039989 -0.002049 -0.452090 66 71 53
-0.039681 -0.001660 -0.452160 173 200 167
-0.040099 -0.002023 -0.452018 58 54 31
-0.039073 -0.001421 -0.452224 24 31 13
-0.039270 -0.001252 -0.452269 171 188 168
-0.040163 -0.002050 -0.451965 60 67 44
-0.040053 -0.002038 -0.452050 184 186 164
-0.039219 -0.001159 -0.452280 191 194 187
0.005104 -0.141593 0.057501 193 206 184
0.067654 -0.049303 0.260051 148 163 157
-0.039488 -0.001677 -0.452249 166 193 149
0.000087 -0.000573 -0.098409 228 215 197
-0.039476 -0.001679 -0.452253 55 71 39
-0.040359 -0.002019 -0.451770 151 153 150
-0.039038 -0.001080 -0.452153 177 204 172
-0.039101 -0.001311 -0.452265 214 207 197
-0.039934 -0.001915 -0.452120 199 190 185
-0.039683 -0.001670 -0.452163 150 183 149
-0.039039 -0.001054 -0.452171 40 57 30
-0.027275 -0.123804 0.048384 232 241 219
-0.011527 -0.126431 0.056640 222 207 186
0.035000 -0.132445 0.073421 167 203 170
-0.039032 -0.001133 -0.452145 22 46 18
-0.040511 -0.001752 -0.451825 66 59 36
-0.039094 -0.001275 -0.452265 88 70 67
0.999090 -0.007411 1.204898 67 47 20
-0.039922 -0.001736 -0.452031 86 73 65
-0.040470 -0.001952 -0.451586 159 190 157
-0.039892 -0.001884 -0.452136 95 79 80
-0.039892 -0.001884 -0.452136 95 79 80
-0.039901 -0.001919 -0.452138 217 205 199
-0.040836 -0.001960 -0.451063 53 67 38
-0.040189 -0.001796 -0.451805 31 63 24
-0.040084 -0.000396 -0.453189 239 222 223
-0.040375 -0.001905 -0.451675 40 61 39
-0.039595 -0.001599 -0.452187 42 53 34
-0.039029 -0.001205 -0.452132 23 46 21
-0.040283 -0.001840 -0.451729 202 211 188
-0.040410 -0.002067 -0.451712 63 82 45
0.001340 -0.056754 0.048080 225 216 189
-0.039440 -0.001584 -0.452249 23 60 18
-0.040894 -0.002226 -0.451134 35 39 19
-0.040237 -0.001814 -0.451764 19 42 17
-0.040894 -0.002226 -0.451134 35 39 19
-0.039027 -0.001209 -0.452142 155 184 156
-0.040984 -0.001951 -0.450803 28 46 26
-0.039591 -0.001584 -0.452185 62 77 59
-0.040928 -0.001507 -0.452638 67 65 78
-0.040685 -0.002079 -0.451369 12 51 12
-0.039566 -0.001579 -0.452197 66 59 51
-0.039569 -0.001575 -0.452194 204 194 189
-0.040807 -0.002170 -0.451275 20 44 16
-0.040758 -0.002136 -0.451321 241 238 229
-0.039571 -0.001561 -0.452189 217 214 203
-0.039279 -0.000906 -0.453647 239 224 198
-0.041483 -0.002833 -0.450257 214 201 192
-0.040725 -0.002113 -0.451351 219 202 198
-0.040672 -0.002076 -0.451399 253 240 231
-0.041396 -0.002756 -0.450365 68 68 49
-0.039049 -0.001040 -0.452241 49 74 42
-0.039937 -0.001910 -0.452118 77 65 60
-0.039536 -0.001821 -0.452255 160 178 151
-0.040846 -0.001983 -0.451059 180 189 173
-0.040823 -0.001986 -0.451098 42 58 41
-0.040597 -0.000516 -0.452558 232 200 199
-0.039858 -0.001786 -0.452112 226 215 213
-0.040243 -0.001855 -0.451809 167 191 165
-0.040622 -0.002040 -0.451433 213 204 185
-0.039464 -0.001508 -0.452227 174 190 158
-0.039951 -0.001792 -0.452050 211 198 199
-0.039325 -0.001510 -0.452269 16 48 10
-0.041432 -0.001963 -0.449992 48 79 45
-0.040431 -0.002048 -0.451685 201 181 175
-0.005127 -0.002764 -0.092001 212 207 215
-0.039029 -0.001199 -0.452195 142 176 137
-0.040201 -0.001773 -0.451777 211 206 196
-0.045407 -0.006951 -0.446355 192 189 201
-0.039027 -0.001256 -0.452171 165 186 153
-0.039952 -0.001886 -0.452103 131 117 114
-0.040009 -0.001795 -0.452002 85 70 63
-0.039841 -0.001871 -0.452157 194 186 184
0.015245 -0.007661 0.227476 149 157 134
-0.039269 -0.001478 -0.452275 16 49 8
-0.039037 -0.001172 -0.452222 42 75 42
-0.039061 -0.001091 -0.452258 47 69 37
-0.040138 -0.001868 -0.451997 124 100 100
-0.039736 -0.000732 -0.453940 22 28 26
-0.040215 -0.001852 -0.452036 50 68 44
0.022088 -0.032174 0.066423 70 58 38
-0.039230 -0.001464 -0.452277 143 179 141
-0.039778 -0.001533 -0.452053 65 77 57
-0.022704 -0.041673 0.035616 43 34 12
-0.040078 -0.001891 -0.452032 79 77 80
-0.039076 -0.001099 -0.452269 165 182 168
-0.039748 -0.001930 -0.452204 36 65 21
0.033526 -0.096435 0.048056 212 197 201
-0.040157 -0.001936 -0.451982 95 84 82
-0.039784 -0.002014 -0.452188 24 50 19
-0.040272 -0.001904 -0.451931 42 52 27
-0.039885 -0.001902 -0.452143 78 64 61
-0.040312 -0.001917 -0.451877 199 183 177
-0.040114 -0.001838 -0.451956 68 51 44
0.273739 0.023516 0.364597 191 185 169
-0.039041 -0.001208 -0.452228 71 73 57
-0.039157 -0.001477 -0.452267 143 174 143
0.047115 -0.104950 0.045623 187 201 178
-0.039865 -0.001905 -0.452154 46 37 30
-0.039865 -0.001905 -0.452154 46 37 30
-0.039087 -0.001111 -0.452274 35 46 32
-0.039472 -0.001408 -0.452208 68 82 53
-0.040437 -0.001966 -0.451696 35 42 25
-0.040125 -0.001959 -0.452002 27 22 26
0.035243 -0.067839 0.265855 162 192 202
-0.039080 -0.001144 -0.452269 43 48 31
-0.041176 -0.000953 -0.453420 249 229 220
-0.039104 -0.001551 -0.452211 45 52 40
-0.039876 -0.002016 -0.452152 180 201 203
-0.040475 -0.000758 -0.452305 129 142 113
-0.040475 -0.000758 -0.452305 129 142 113
-0.040341 -0.000059 -0.453823 39 61 52
-0.039048 -0.001230 -0.452235 170 193 162
-0.040131 -0.001843 -0.451947 223 204 195
0.002996 -0.087413 0.068971 57 46 24
-0.044829 -0.006137 -0.443967 48 26 15
-0.039422 -0.001367 -0.452224 189 209 181
-0.040437 -0.001175 -0.452046 147 158 128
-0.040089 -0.001889 -0.452025 243 234 235
-0.039678 -0.001577 -0.452133 70 71 56
-0.039678 -0.001577 -0.452133 70 71 56
-0.039065 -0.001061 -0.452263 189 205 181
-0.039495 -0.001489 -0.452210 167 218 204
-0.040960 -0.001286 -0.452895 71 75 86
-0.039053 -0.001021 -0.452247 80 102 81
-0.040949 -0.001300 -0.452866 57 58 70
-0.040443 -0.000953 -0.452188 141 152 122
-0.040199 -0.001852 -0.451902 228 216 216
-0.039031 -0.001191 -0.452123 32 68 30
-0.039032 -0.001140 -0.452209 57 81 52
0.066842 -0.048829 0.261507 154 163 158
-0.040618 -0.002017 -0.451428 145 174 148
-0.040618 -0.002017 -0.451428 145 174 148
-0.040146 -0.001883 -0.452000 127 107 97
0.171756 -0.099807 0.247730 51 58 41
-0.039061 -0.001710 -0.453483 192 196 173
0.034192 -0.069842 0.266276 39 67 44
-0.040261 -0.001829 -0.451747 55 76 48
-0.040709 -0.002012 -0.451289 30 58 36
0.034274 -0.097659 0.049705 210 201 194
-0.041114 -0.001298 -0.453094 63 60 71
-0.039041 -0.001063 -0.452154 56 76 48
0.168828 -0.068661 0.267140 191 184 158
-0.040481 -0.000707 -0.452310 155 169 136
-0.040400 -0.001903 -0.451632 56 61 46
-0.040438 -0.001261 -0.451979 37 50 17
-0.040146 -0.001858 -0.452014 240 226 223
-0.040872 -0.000297 -0.452932 143 112 109
-0.040961 -0.002000 -0.450872 203 221 196
-0.040470 -0.001522 -0.451807 142 156 132
0.000541 -0.069674 0.061549 213 187 173
-0.015757 -0.042660 0.039875 61 67 28
-0.005709 -0.064017 0.060867 214 194 175
-0.005709 -0.064017 0.060867 214 194 175
-0.040917 -0.001994 -0.450944 39 76 42
-0.003323 -0.098006 0.068792 45 34 12
-0.039389 -0.001522 -0.452255 204 181 169
-0.040086 -0.001848 -0.451995 224 206 204
-0.040437 -0.001087 -0.452106 146 163 122
-0.040437 -0.001087 -0.452106 146 163 122
0.010145 -0.105278 0.071746 67 83 42
-0.040027 -0.001895 -0.452063 97 83 82
6.793762 21.340780 11.832151 205 214 229
-0.040121 -0.001898 -0.452009 107 91 91
-0.039094 -0.001522 -0.452212 76 79 65
-0.039502 -0.001619 -0.452234 42 64 36
-0.039140 -0.001407 -0.452269 28 61 30
-0.040556 -0.000250 -0.452196 130 140 123
-0.040086 -0.001716 -0.452141 199 205 180
-0.039785 -0.001703 -0.452115 40 54 27
-0.039116 -0.001427 -0.452258 20 54 22
-0.039116 -0.001427 -0.452258 20 54 22
-0.040342 -0.000089 -0.453806 179 196 185
-0.041078 -0.002043 -0.450688 157 171 146
-0.039325 -0.001329 -0.452256 167 191 159
-0.041172 -0.002440 -0.450888 196 205 184
-0.039397 -0.001722 -0.452271 163 197 162
-0.040747 -0.002023 -0.451231 36 67 36
-0.039055 -0.001240 -0.452037 11 41 19
-0.039102 -0.001440 -0.452247 6 42 9
-0.040443 -0.000887 -0.452205 16 29 5
-0.040137 -0.001850 -0.452082 148 182 137
-0.039752 -0.001695 -0.452132 46 61 38
-0.039752 -0.001695 -0.452132 46 61 38
-0.040209 -0.002056 -0.451924 221 204 188
-0.039083 -0.001198 -0.452266 194 173 166
-0.039083 -0.001198 -0.452266 194 173 166
-0.039054 -0.001248 -0.452038 162 188 161
-0.040225 -0.001833 -0.451798 157 185 150
-0.039052 -0.001062 -0.452116 170 188 166
-0.039052 -0.001062 -0.452116 170 188 166
-0.040355 -0.000082 -0.453811 53 75 63
-0.039047 -0.001176 -0.452074 9 41 3
-0.040442 -0.002022 -0.451669 170 177 185
-0.039058 -0.000988 -0.452153 59 70 53
-0.046711 -0.013437 -0.442884 172 176 175
-0.040235 -0.000001 -0.453823 11 29 17
-0.039096 -0.001191 -0.452272 60 52 36
-0.039096 -0.001191 -0.452272 60 52 36
-0.039946 -0.001899 -0.452111 115 102 97
-0.039184 -0.001315 -0.452279 42 74 38
-0.040150 -0.001862 -0.452050 235 229 233
-0.039647 -0.001681 -0.452187 159 173 155
-0.040287 -0.001859 -0.451745 70 88 52
-0.039052 -0.001279 -0.452039 56 75 52
-0.040146 -0.001860 -0.452037 115 99 102
-0.040547 -0.002012 -0.451531 57 92 51
-0.041260 -0.002511 -0.450778 54 59 38
-0.040182 -0.001700 -0.451771 210 204 214
-0.039445 -0.001657 -0.452258 70 91 64
-0.039445 -0.001657 -0.452258 70 91 64
-0.040184 -0.001814 -0.451830 167 194 159
-0.040184 -0.001814 -0.451830 167 194 159
-0.039049 -0.001437 -0.452160 72 59 55
-0.040100 -0.001865 -0.452005 131 111 104
-0.039769 -0.001691 -0.452120 27 61 28
-0.041207 -0.002467 -0.450832 197 195 177
-0.039547 -0.001677 -0.452230 50 81 32
-0.039167 -0.001296 -0.452280 166 197 159
-0.040465 -0.000346 -0.452214 127 143 117
-0.039641 -0.001655 -0.452181 162 195 155
-0.039976 -0.001921 -0.452098 225 215 212
-0.039875 -0.001698 -0.452045 158 182 153
-0.039467 -0.001686 -0.452257 34 69 27
-0.039048 -0.001371 -0.452201 30 61 29
-0.040099 -0.002023 -0.452018 58 54 31
-0.039064 -0.001285 -0.452245 46 48 25
-0.039056 -0.001345 -0.452027 54 68 54
-0.040163 -0.002050 -0.451965 60 67 44
-0.040478 -0.000578 -0.452290 159 171 135
-0.040289 -0.000642 -0.452123 122 131 106
-0.040684 -0.000343 -0.452418 126 135 113
-0.040641 -0.002186 -0.451361 135 145 132
-0.039380 -0.001250 -0.452234 54 63 53
-0.039682 -0.001664 -0.452162 26 56 20
-0.039044 -0.001026 -0.452173 47 73 44
-0.040521 -0.000309 -0.452230 116 118 104
-0.039649 -0.001674 -0.452183 39 37 28
-0.039635 -0.001663 -0.452187 206 190 190
-0.040419 -0.000903 -0.452152 144 157 130
-0.039220 -0.001173 -0.452279 149 161 148
-0.039683 -0.001670 -0.452163 150 183 149
-0.039071 -0.001355 -0.452239 20 53 24
-0.039606 -0.001819 -0.452238 49 77 34
-0.040470 -0.000611 -0.452282 55 64 32
-0.039438 -0.001682 -0.452262 43 74 42
-0.039033 -0.001154 -0.452129 26 46 19
-0.040415 -0.000937 -0.452131 163 177 145
-0.039137 -0.001211 -0.452281 48 53 37
-0.039137 -0.001211 -0.452281 48 53 37
-0.040104 -0.002041 -0.452013 184 189 166
-0.039036 -0.001078 -0.452165 148 179 139
-0.040548 -0.000463 -0.452349 20 32 12
-0.039057 -0.001364 -0.452220 171 200 172
-0.040675 -0.000332 -0.452393 160 174 151
-0.039032 -0.001149 -0.452140 26 49 23
-0.040481 -0.000597 -0.452297 19 29 13
-0.039994 -0.001717 -0.451953 46 77 37
-0.040339 -0.000505 -0.452934 48 71 56
-0.039788 -0.001708 -0.452115 147 165 130
-0.039480 -0.001298 -0.453146 182 191 157
-0.039733 -0.000734 -0.453941 210 204 212
-0.039756 -0.001475 -0.452671 208 216 186
-0.040775 -0.002139 -0.451279 143 177 136
-0.040261 -0.001858 -0.451783 16 42 10
-0.039682 -0.001899 -0.452224 115 158 108
-0.039032 -0.001107 -0.452169 35 63 25
-0.039045 -0.001340 -0.452062 58 72 53
-0.039045 -0.001340 -0.452062 58 72 53
-0.040090 -0.001851 -0.451997 89 71 69
-0.040322 -0.000018 -0.453718 197 221 223
-0.039483 -0.001723 -0.452257 26 51 22
-0.039483 -0.001723 -0.452257 26 51 22
-0.039040 -0.001040 -0.452201 17 44 17
-0.040452 -0.000403 -0.452229 59 68 32
-0.040452 -0.000403 -0.452229 59 68 32
-0.040208 -0.001803 -0.451789 30 62 26
-0.039497 -0.001727 -0.452254 166 191 156
-0.039497 -0.001727 -0.452254 166 191 156
-0.039043 -0.001024 -0.452215 39 65 40
-0.039043 -0.001024 -0.452215 39 65 40
-0.039326 -0.001614 -0.452274 148 166 140
-0.040283 -0.001840 -0.451729 202 211 188
-0.039436 -0.001750 -0.452267 52 84 47
-0.039327 -0.001608 -0.452274 50 64 40
-0.039560 -0.001586 -0.452201 224 212 205
-0.040424 -0.000460 -0.452221 152 158 130
-0.041371 -0.002653 -0.450513 18 56 9
-0.039329 -0.001603 -0.452274 152 173 151
-0.039038 -0.001327 -0.452088 26 60 25
-0.039041 -0.001350 -0.452078 23 51 17
-0.040756 -0.002133 -0.451321 224 212 207
-0.040253 -0.000009 -0.453753 161 180 173
-0.040253 -0.000009 -0.453753 161 180 173
-0.041212 -0.002511 -0.450708 151 174 140
-0.039288 -0.001594 -0.452276 172 188 171
-0.039048 -0.001023 -0.452235 39 66 37
-0.039483 -0.001553 -0.452227 39 74 31
-0.039039 -0.001068 -0.452221 33 54 27
-0.040725 -0.002113 -0.451351 219 202 198
-0.039463 -0.001545 -0.452234 157 192 150
-0.039463 -0.001545 -0.452234 157 192 150
-0.039795 -0.001904 -0.452185 154 144 132
-0.040751 -0.002132 -0.451328 245 244 231
-0.039545 -0.001545 -0.452198 167 185 160
-0.039545 -0.001545 -0.452198 167 185 160
-0.055359 -0.001696 -0.421094 47 66 46
-0.039026 -0.001198 -0.452170 47 59 36
-0.039043 -0.001062 -0.452232 63 68 50
-0.040473 -0.000425 -0.452253 181 187 156
-0.039051 -0.001417 -0.452065 165 188 156
-0.039470 -0.001787 -0.452264 153 184 148
-0.040793 -0.002160 -0.451230 166 184 154
-0.040056 -0.001811 -0.451976 92 82 83
-0.039613 -0.001766 -0.452226 20 45 8
-0.040438 -0.000502 -0.452239 122 133 102
-0.039325 -0.001510 -0.452269 16 48 10
-0.039911 -0.001912 -0.452132 245 231 228
-0.040371 -0.000685 -0.452168 130 138 118
-0.040593 -0.000323 -0.452300 30 46 21
-0.039312 -0.001508 -0.452271 155 190 155
-0.039056 -0.001069 -0.452254 81 79 65
-0.039032 -0.001331 -0.452131 33 50 20
-0.040388 -0.000635 -0.452192 174 187 159
-0.040388 -0.000635 -0.452192 174 187 159
-0.040169 -0.000022 -0.453738 188 204 195
-0.040600 -0.000320 -0.452304 158 173 151
-0.040600 -0.000320 -0.452304 158 173 151
-0.039033 -0.001177 -0.452211 25 51 22
-0.039245 -0.001509 -0.452277 142 185 139
-0.039841 -0.001774 -0.452116 198 184 183
-0.040574 -0.002010 -0.451488 55 60 41
-0.040574 -0.002010 -0.451488 55 60 41
-0.039855 -0.001587 -0.452011 58 83 51
-0.039855 -0.001587 -0.452011 58 83 51
-0.039197 -0.001523 -0.452272 145 179 145
-0.039894 -0.001895 -0.452137 95 84 82
-1.690531 -0.689402 0.019720 189 183 171
-0.040936 -0.000293 -0.453731 47 23 21
-0.040138 -0.001868 -0.451997 124 100 100
-0.040597 -0.000332 -0.452312 186 195 158
-0.039935 -0.001943 -0.452123 209 202 196
-0.039035 -0.001192 -0.452216 53 81 47
-0.040894 -0.001997 -0.450984 165 197 160
-0.039552 -0.001472 -0.452179 172 185 158
-0.039187 -0.001505 -0.452272 27 64 24
-0.040024 -0.001933 -0.452071 92 81 79
-0.039085 -0.001070 -0.452275 170 180 164
-0.039183 -0.000994 -0.452295 236 227 223
-0.039183 -0.000994 -0.452295 236 227 223
0.172861 -0.089633 0.367275 10 18 1
-0.040615 -0.000329 -0.452326 166 174 135
-0.039195 -0.001460 -0.452276 9 37 8
-0.040495 -0.001981 -0.451612 136 174 134
-0.040312 -0.001917 -0.451877 199 183 177
-0.040369 -0.001127 -0.451976 167 149 149
-0.039566 -0.001438 -0.452165 51 78 48
-0.039566 -0.001438 -0.452165 51 78 48
-0.039168 -0.001459 -0.452272 32 68 34
-0.039151 -0.001470 -0.452266 1 34 3
-0.039034 -0.001301 -0.452188 160 197 156
-0.040292 -0.001775 -0.451966 58 36 25
-0.039176 -0.001438 -0.452275 151 191 154
-0.040514 -0.000448 -0.452300 159 166 134
-0.040599 -0.000351 -0.452331 156 168 129
-0.040599 -0.000351 -0.452331 156 168 129
-0.039040 -0.001246 -0.452219 158 183 155
-0.039187 -0.001417 -0.452277 16 58 21
-0.039161 -0.001434 -0.452272 147 183 146
-0.040333 -0.001950 -0.451827 35 72 28
-0.040333 -0.001950 -0.451827 35 72 28
-0.040907 -0.002016 -0.450969 12 52 15
-0.039080 -0.001144 -0.452269 43 48 31
-0.040341 -0.000059 -0.453823 39 61 52
-0.040407 -0.000717 -0.452195 31 33 20
-0.039473 -0.001380 -0.452204 183 209 178
-0.040349 -0.001961 -0.451801 37 68 26
-0.040131 -0.001843 -0.451947 223 204 195
-0.040545 -0.001862 -0.451582 114 131 112
-0.039691 -0.001633 -0.452145 169 201 159
-0.040600 -0.000229 -0.452193 144 157 126
-0.039307 -0.001482 -0.452270 25 66 26
-0.040571 -0.001789 -0.451785 201 215 206
-0.041296 -0.001984 -0.450263 45 78 41
-0.039606 -0.001813 -0.452237 148 175 134
-0.039248 -0.001516 -0.452277 34 76 30
-0.039871 -0.001682 -0.452040 48 74 47
-0.040603 -0.000405 -0.452382 41 52 24
-0.039036 -0.001365 -0.452161 83 108 86
-0.040598 -0.000479 -0.452451 135 144 117
-0.039055 -0.001029 -0.452130 158 177 158
-0.039055 -0.001029 -0.452130 158 177 158
-0.039067 -0.001024 -0.452264 173 195 175
-0.039838 -0.001679 -0.452064 164 190 161
-0.040520 -0.000531 -0.452338 31 40 23
-0.039066 -0.001432 -0.452211 166 170 153
-0.039031 -0.001191 -0.452123 32 68 30
-0.040413 -0.000442 -0.452210 28 36 17
-0.039031 -0.001147 -0.452146 40 64 37
-0.039853 -0.001668 -0.452047 40 72 37
-0.040618 -0.000374 -0.452373 34 49 11
-0.040483 -0.000576 -0.452296 33 48 8
-0.039123 -0.001074 -0.452286 67 79 65
-0.041953 -0.003188 -0.449847 56 77 42
-0.040691 -0.002347 -0.451228 161 154 137
-0.039039 -0.001235 -0.452220 47 70 41
-0.039094 -0.001511 -0.452217 164 184 157
-0.039040 -0.001088 -0.452138 164 187 159
-0.039040 -0.001088 -0.452138 164 187 159
-0.039421 -0.001752 -0.452269 34 73 24
-0.039899 -0.001877 -0.452130 231 223 221
-0.040276 -0.000001 -0.453788 158 172 164
-0.039037 -0.001088 -0.452152 36 59 28
-0.039447 -0.001755 -0.452266 169 198 162
-0.039926 -0.001894 -0.452120 226 212 209
-0.047980 -0.013714 -0.431445 166 156 156
-0.040079 -0.000014 -0.453847 173 166 161
-0.039942 -0.001950 -0.452120 59 50 42
-0.039047 -0.001147 -0.452241 56 79 46
-0.039030 -0.001290 -0.452172 49 82 53
-0.040664 -0.000289 -0.452323 164 175 141
-0.040512 -0.000598 -0.452349 157 168 134
-0.039066 -0.001083 -0.452263 48 71 47
-0.039896 -0.001871 -0.452130 83 74 75
-0.040451 -0.001371 -0.451915 140 155 127
-0.040605 -0.000229 -0.452197 52 46 33
-0.039346 -0.001479 -0.452262 80 96 61
-0.039809 -0.001667 -0.452080 164 193 163
-0.040435 -0.001255 -0.451974 10 23 1
-0.040458 -0.000715 -0.452263 15 28 5
-0.040264 -0.001831 -0.451745 80 103 72
-0.039419 -0.001663 -0.452264 137 175 131
-0.039531 -0.001323 -0.452170 175 178 173
-0.039065 -0.001341 -0.452235 138 181 138
-0.040274 -0.000905 -0.452538 102 80 75
-0.040306 -0.000397 -0.453090 58 74 71
-0.039588 -0.001741 -0.452229 34 43 14
-0.034135 -0.004512 -0.450797 45 45 35
-0.044352 0.003603 -0.446796 150 158 146
-0.044352 0.003603 -0.446796 150 158 146
-0.039028 -0.001175 -0.453281 29 35 19
-0.092635 0.035281 -0.398884 207 218 201
-0.006427 0.005523 -0.096763 116 115 105
0.004173 -0.003381 -0.091105 49 71 32
-0.045888 0.005101 -0.446880 144 148 123
-0.005504 0.004719 -0.091482 151 167 136
-0.042219 0.002005 -0.447674 225 236 231
-0.058628 0.009242 -0.451139 88 78 86
-0.033594 -0.003715 -0.452429 157 183 146
-0.033594 -0.003715 -0.452429 157 183 146
-0.043859 0.004347 -0.448283 177 179 155
-0.043859 0.004347 -0.448283 177 179 155
-0.035967 -0.002826 -0.453409 35 35 36
-0.043344 0.003045 -0.447515 170 183 154
-0.005806 0.005304 -0.090019 81 61 63
-0.045369 0.004238 -0.446081 155 167 145
-0.045369 0.004238 -0.446081 155 167 145
-0.004480 0.006549 -0.091407 155 167 145
-0.047626 0.005390 -0.443415 199 203 178
-0.005220 0.006523 -0.089772 183 199 190
-0.039776 -0.000548 -0.453402 20 31 13
-0.034219 -0.004456 -0.451054 31 29 17
-0.004455 0.006394 -0.091601 175 187 169
-0.035697 -0.002896 -0.453155 84 69 76
-0.004964 0.006413 -0.090351 156 166 165
-0.038952 -0.001057 -0.453191 46 23 4
-0.001999 0.006912 -0.092921 38 36 52
-0.047889 0.006318 -0.445667 179 180 147
-0.005002 0.006940 -0.089744 169 183 169
-0.041935 0.002236 -0.448128 155 169 154
-0.077027 0.003059 -0.444214 93 79 96
-0.035887 -0.002847 -0.453392 46 48 49
-0.045450 0.004200 -0.445820 191 204 184
-0.042225 -0.000392 -0.450618 251 249 252
-0.038998 -0.001192 -0.453271 200 185 180
-0.042897 0.002618 -0.447580 187 198 182
-0.043438 0.002866 -0.447147 201 213 193
-0.045484 -0.001170 -0.450709 77 72 94
-0.035659 -0.002949 -0.453022 50 33 41
-0.044991 -0.001299 -0.450808 59 52 68
-0.043392 0.002890 -0.447246 198 210 188
-0.034221 -0.002943 -0.453038 174 190 177
-0.048736 0.006460 -0.443670 174 176 169
-0.033725 -0.003368 -0.451639 8 33 11
-0.033725 -0.003368 -0.451639 8 33 11
-0.033069 -0.003322 -0.451052 19 38 16
-0.038834 -0.001170 -0.453178 216 198 179
-0.042029 0.002249 -0.448074 172 184 179
-0.039848 -0.000412 -0.453587 32 32 26
-0.036214 -0.002701 -0.453437 227 216 219
-0.042663 0.002559 -0.447789 148 161 136
-0.042304 0.002368 -0.447961 158 174 165
-0.033094 -0.003328 -0.451072 20 45 17
-0.033497 -0.003429 -0.451311 159 180 154
-0.034381 -0.003992 -0.451588 177 183 173
-0.044412 0.004156 -0.447571 167 171 145
-0.044376 0.003159 -0.445996 42 56 41
-0.033969 -0.003564 -0.452473 19 45 10
-0.044568 0.003678 -0.446539 211 221 195
-0.044568 0.003678 -0.446539 211 221 195
-0.051045 0.007972 -0.441691 191 195 178
-0.043463 0.002990 -0.447276 167 179 161
-0.070418 0.013819 -0.452080 7 34 4
-0.032752 -0.003157 -0.451053 191 203 193
-0.043645 0.004142 -0.448309 164 167 136
-0.048251 0.005714 -0.442583 168 176 138
-0.067610 0.018778 -0.424602 184 198 173
-0.046999 0.004941 -0.443864 185 192 151
-0.043598 0.004166 -0.448358 171 172 140
-0.034877 -0.003325 -0.452457 213 208 215
-0.034501 -0.003797 -0.451836 168 180 165
-0.034810 -0.003349 -0.452406 88 71 74
-0.034163 -0.003402 -0.451942 196 211 209
-0.034217 -0.004470 -0.451041 24 27 16
-0.034212 -0.004468 -0.451028 139 156 138
-0.029266 -0.005251 -0.452151 208 188 192
-0.034088 -0.004493 -0.450694 185 200 191
-0.044002 0.003061 -0.446518 166 180 156
-0.035885 -0.002807 -0.453354 196 198 187
-0.042708 0.002318 -0.447489 160 172 160
-0.041975 0.002612 -0.448436 59 50 41
-0.039852 -0.000385 -0.453621 203 198 202
-0.039735 -0.000732 -0.453942 136 145 117
-0.044874 0.003636 -0.445855 34 46 22
-0.044874 0.003636 -0.445855 34 46 22
-0.004327 0.006661 -0.090096 223 237 216
-0.045356 0.003957 -0.445484 218 226 186
-0.034098 -0.003977 -0.451210 54 35 36
-0.045519 0.004068 -0.445363 42 50 18
-0.039680 -0.000523 -0.453217 28 33 8
-0.045700 0.004298 -0.445479 38 48 25
-0.045700 0.004298 -0.445479 38 48 25
-0.042808 0.002462 -0.447519 172 186 172
-0.042582 0.002386 -0.447699 156 166 142
-0.048475 0.006028 -0.442926 193 203 168
-0.034035 -0.003002 -0.452559 17 36 17
-0.042450 0.002238 -0.447692 47 61 47
-0.040670 -0.000629 -0.450514 200 216 213
-0.040670 -0.000629 -0.450514 200 216 213
-0.043914 0.003475 -0.447301 170 182 156
-0.032761 -0.003588 -0.450911 40 39 28
-0.034656 -0.003276 -0.452546 143 174 133
-0.042202 0.002135 -0.447822 185 199 182
-0.043528 0.003257 -0.447543 173 182 162
-0.034111 -0.003963 -0.451242 211 181 182
-0.039778 -0.000806 -0.453662 141 154 141
-0.039778 -0.000806 -0.453662 141 154 141
-0.041275 -0.000850 -0.450967 76 64 78
-0.034214 -0.005114 -0.450564 55 38 46
-0.043407 0.002914 -0.447256 21 33 13
-0.040771 -0.000562 -0.450392 179 197 197
-0.046692 0.005004 -0.444873 170 180 147
-0.044993 0.004134 -0.446621 184 196 176
-0.034564 -0.002992 -0.452856 32 20 20
0.005973 0.002180 -0.098782 139 147 142
-0.034525 -0.003692 -0.451920 46 52 52
-0.044210 0.003706 -0.447202 155 167 147
-0.044355 0.004284 -0.447787 168 173 143
-0.034757 -0.003302 -0.452429 10 0 3
-0.034757 -0.003302 -0.452429 10 0 3
-0.035366 -0.003085 -0.452863 98 82 89
-0.039884 -0.000370 -0.453424 15 39 10
0.004022 0.003613 -0.093285 226 221 228
-0.044869 0.004000 -0.446589 153 161 151
-0.042411 0.002645 -0.448127 151 166 151
-0.049344 0.006752 -0.442736 164 174 147
-0.004452 0.005764 -0.090561 136 150 115
-0.043176 0.002942 -0.447606 136 150 115
-0.044587 0.003806 -0.446740 160 169 151
-0.041157 -0.002468 -0.450767 172 156 135
-0.034734 -0.003080 -0.452704 58 46 50
-0.040073 -0.000535 -0.451660 173 178 176
-0.040073 -0.000535 -0.451660 173 178 176
-0.034667 -0.003071 -0.452704 80 80 70
-0.033921 -0.003572 -0.451499 178 190 176
-0.035557 -0.002995 -0.452962 70 54 57
-0.043417 0.003062 -0.447437 164 178 148
-0.082109 0.022947 -0.411049 151 155 156
-0.036040 -0.002764 -0.453241 137 118 115
-0.036040 -0.002764 -0.453241 137 118 115
-0.040069 -0.000463 -0.453045 73 94 50
-0.039063 -0.000962 -0.453199 208 202 181
-0.042536 0.003619 -0.448717 164 166 150
-0.046970 0.005313 -0.445042 192 203 185
-0.043199 0.002361 -0.446901 202 213 196
-0.044506 0.004282 -0.447612 178 182 153
-0.044439 0.004233 -0.447633 42 47 17
-0.042053 0.003378 -0.448837 183 184 152
-0.043235 0.002396 -0.446886 79 90 73
-0.034369 -0.004071 -0.451535 28 49 33
-0.043550 0.003894 -0.448205 21 21 5
-0.043550 0.003894 -0.448205 21 21 5
-0.041733 0.002799 -0.448696 73 39 42
-0.063266 0.015525 -0.427267 173 185 177
-0.043116 0.002342 -0.446997 208 219 204
-0.034740 -0.003252 -0.452506 63 48 51
-0.034082 -0.004501 -0.450669 33 42 35
-0.042422 0.003204 -0.448563 251 218 209
-0.045172 0.004979 -0.447644 10 12 4
-0.039801 -0.000790 -0.453677 40 54 37
-0.050241 0.004394 -0.443963 96 52 53
-0.050241 0.004394 -0.443963 96 52 53
-0.040368 -0.000497 -0.451201 197 207 208
-0.002387 0.006547 -0.090896 173 197 165
-0.047070 0.006068 -0.446678 162 165 145
-0.034452 -0.003813 -0.451772 45 52 36
-0.043867 0.003324 -0.447146 148 161 132
-0.039830 -0.000481 -0.453706 48 55 42
-0.035597 -0.002976 -0.452990 175 158 165
-0.041835 0.002849 -0.448679 237 201 198
-0.042134 0.002467 -0.448198 174 188 172
-0.042821 0.002371 -0.447408 184 196 182
-0.033729 -0.003773 -0.450989 65 59 58
-0.045231 0.004137 -0.446150 36 47 30
-0.045231 0.004137 -0.446150 36 47 30
-0.038599 -0.001448 -0.453210 42 54 33
-0.039933 -0.000424 -0.453173 66 45 32
-0.044582 -0.001275 -0.450901 82 69 83
-0.065677 0.017149 -0.424945 40 52 41
-0.044059 0.004210 -0.448016 162 168 134
-0.042934 0.002785 -0.447722 166 178 156
-0.043318 0.003007 -0.447501 23 32 26
-0.043318 0.003007 -0.447501 23 32 26
-0.034213 -0.005107 -0.450563 108 92 100
-0.044468 0.004215 -0.447574 23 27 4
-0.033531 -0.003400 -0.451406 166 192 163
-0.040461 -0.000863 -0.450886 77 88 71
-0.003947 0.003414 -0.089530 228 221 228
-0.042059 0.000664 -0.452946 210 205 182
-0.053277 0.029371 -0.443102 46 58 45
-0.034138 -0.003426 -0.451889 170 190 168
-0.035809 -0.002862 -0.453141 240 225 228
-0.042733 0.002593 -0.447747 27 38 32
-0.056653 0.011206 -0.434184 137 149 126
-0.044351 0.003444 -0.446519 167 179 154
-0.044351 0.003444 -0.446519 167 179 154
-0.038239 -0.001716 -0.453139 221 191 181
0.031925 -0.162087 0.425358 197 208 192
0.031925 -0.162087 0.425358 197 208 192
0.106545 -0.135911 0.480630 48 51 42
-0.034192 -0.003498 -0.451829 48 51 42
-0.105842 0.027924 -0.451629 29 37 17
-0.036446 -0.003581 -0.453028 170 146 134
-0.039212 -0.001330 -0.453446 48 45 20
0.063361 -0.186980 0.328941 29 42 26
0.034577 -0.161479 0.427329 201 210 193
0.406461 -0.244750 0.425520 228 223 207
-0.039857 -0.000328 -0.453361 26 21 3
-0.039835 -0.000261 -0.453687 29 18 12
-0.008551 -0.164884 0.407572 171 183 169
0.024629 -0.131537 0.454329 43 64 35
-0.052087 0.008167 -0.438640 170 182 161
-0.092635 0.035281 -0.398884 207 218 201
-0.092635 0.035281 -0.398884 207 218 201
0.041443 -0.168552 0.416351 171 194 173
0.005392 0.005149 -0.097315 36 30 32
-0.044936 0.003528 -0.445527 203 214 200
0.031177 -0.182341 0.353300 56 54 48
-0.036323 -0.002518 -0.453382 25 27 17
0.137434 -0.126691 0.495721 32 32 20
-0.034746 -0.003244 -0.452521 53 35 35
-0.039120 -0.001164 -0.453378 171 183 161
-0.034089 -0.003246 -0.452121 18 16 7
-0.039841 -0.000275 -0.453680 42 30 30
-0.051599 0.007948 -0.439508 174 184 149
-0.039040 -0.000931 -0.453223 221 200 189
-0.043010 0.002426 -0.447226 174 186 182
-0.181294 0.080054 -0.347382 211 187 182
0.167472 -0.185929 0.445467 49 38 46
-0.039033 -0.001349 -0.452142 244 220 213
0.068005 -0.163189 0.436888 179 191 172
0.068005 -0.163189 0.436888 179 191 172
-0.041707 0.002489 -0.448492 252 236 235
0.067962 -0.151024 0.453945 24 37 20
-0.053853 0.011758 -0.445894 216 221 243
-0.035812 -0.003685 -0.453122 17 3 2
-0.038420 -0.001540 -0.453158 29 38 13
-0.045061 0.003747 -0.445685 187 199 174
-0.034881 -0.002257 -0.452563 150 176 139
-0.039756 -0.000843 -0.453630 174 181 167
-0.035909 -0.002809 -0.453364 44 45 39
-0.040178 -0.000663 -0.453750 163 181 163
-0.035778 -0.004120 -0.453036 215 191 166
-0.077027 0.003059 -0.444214 93 79 96
0.003297 -0.001788 -0.097719 74 91 72
-0.033401 -0.003077 -0.451941 206 189 190
0.007740 -0.181317 0.346837 36 35 22
-0.039227 -0.000724 -0.453269 59 32 17
-0.039241 -0.000873 -0.453179 23 10 1
-0.039246 -0.000747 -0.453250 226 208 194
-0.050280 0.007238 -0.441384 184 196 174
-0.035677 -0.002895 -0.453118 90 66 69
-0.050280 0.007238 -0.441384 184 196 174
-0.047160 -0.000207 -0.450394 53 48 64
-0.039853 -0.000441 -0.453198 51 34 18
-0.046329 0.004638 -0.444803 28 35 8
0.585117 -0.362363 0.065417 38 39 60
-0.008749 -0.172003 0.390208 23 47 15
-0.008749 -0.172003 0.390208 23 47 15
-0.042373 0.002473 -0.447998 197 213 177
-0.039591 -0.000348 -0.453403 35 19 8
-0.039510 -0.000419 -0.453369 30 25 7
-0.043600 0.004599 -0.448559 36 40 4
-0.039882 -0.000326 -0.453401 12 39 2
0.115843 0.036138 0.471579 186 188 177
-0.034072 -0.004179 -0.450975 56 43 48
-0.038743 -0.001205 -0.453191 217 195 186
-0.034144 -0.003689 -0.451562 202 211 181
-0.031452 -0.008185 -0.452994 207 187 157
-0.036638 -0.003097 -0.453106 55 36 10
-0.039698 -0.000799 -0.453651 24 48 19
-0.039509 -0.000355 -0.453412 28 10 4
-0.039635 -0.000261 -0.453472 27 18 2
-0.043051 0.003448 -0.448270 48 51 21
-0.034599 -0.003097 -0.452630 47 60 44
0.097281 -0.179943 0.410245 47 60 44
0.079868 -0.188011 0.349648 218 221 212
-0.039452 -0.001731 -0.452264 76 73 62
-0.025759 -0.179844 0.352239 11 32 14
0.299464 -0.231004 0.422949 60 32 31
-0.033830 -0.003558 -0.451431 30 47 20
-0.039848 -0.000404 -0.453623 38 37 30
-0.033393 -0.003212 -0.451622 31 33 30
-0.042414 0.001943 -0.447443 208 225 207
-0.038239 -0.001716 -0.453139 221 191 181
-0.041831 0.005498 -0.448906 78 38 44
-0.041831 0.005498 -0.448906 78 38 44
-0.034121 -0.004702 -0.450556 67 70 59
0.150099 -0.200921 0.311777 33 48 23
-0.034196 -0.004085 -0.451256 27 40 24
-0.034196 -0.004709 -0.450824 29 47 29
0.158361 -0.002741 0.496060 29 47 29
-0.038846 -0.001113 -0.453200 42 23 14
-0.044372 0.003870 -0.447211 169 182 156
0.181486 -0.207455 0.317643 42 57 39
0.110838 -0.135049 0.482588 173 177 165
-0.039298 -0.001541 -0.452275 42 78 45
-0.728141 0.298725 -0.451791 32 50 17
-0.038890 -0.001003 -0.453232 206 191 187
-0.038890 -0.001003 -0.453232 206 191 187
-0.043582 0.004874 -0.448643 150 154 131
0.195137 -0.201488 0.405363 20 41 20
-0.034047 -0.003485 -0.451734 41 57 31
-0.039837 -0.000266 -0.453680 212 199 195
-0.033877 -0.002963 -0.452557 160 176 164
-0.033712 -0.003171 -0.451997 207 189 187
-0.034337 -0.003468 -0.451974 148 153 133
-0.042919 0.003052 -0.448028 175 190 150
-0.034175 -0.004650 -0.450796 33 53 28
0.095589 -0.184624 0.390621 14 33 6
-0.046660 0.004596 -0.443854 203 216 196
-0.043670 0.003446 -0.447603 162 174 151
-0.042663 0.002559 -0.447789 148 161 136
-0.038731 -0.001184 -0.453202 191 166 159
0.109972 -0.000619 0.483790 67 71 72
-0.039607 -0.000822 -0.453588 127 150 121
-0.039847 -0.172638 0.382788 49 67 53
-0.039844 -0.000281 -0.453669 194 184 182
-0.039848 -0.000311 -0.453696 52 59 41
-0.044361 0.004539 -0.448020 161 165 141
-0.040263 -0.000901 -0.450999 65 73 62
0.053006 -0.130874 0.464890 169 183 157
0.147105 -0.197425 0.370092 41 63 42
0.162322 -0.041694 0.508005 53 65 55
-0.042667 0.003800 -0.448727 25 27 7
-0.034439 -0.003855 -0.451734 167 185 169
-0.042588 0.002405 -0.447712 204 218 194
0.130823 -0.137384 0.487894 188 196 179
-0.039851 -0.000386 -0.453751 30 47 28
0.077575 -0.187556 0.350834 22 29 16
-0.047654 0.006076 -0.453062 221 218 180
-0.039844 -0.000425 -0.453570 173 169 161
0.130823 -0.137384 0.487894 188 196 179
0.213586 -0.202581 0.433612 210 199 213
-0.036180 -0.027658 -0.403697 193 211 203
-0.040052 -0.000910 -0.451119 62 72 60
-0.064328 0.012350 -0.435118 24 23 44
-0.045682 0.005536 -0.447663 157 157 146
-0.039166 -0.001127 -0.453387 31 52 25
-0.034170 -0.004545 -0.450860 37 45 33
-0.035149 -0.003198 -0.452682 61 54 62
0.253117 -0.184436 0.490810 61 54 62
-0.039822 -0.000246 -0.453541 157 182 153
-0.005865 -0.020483 -0.452936 24 49 10
-0.039474 -0.000470 -0.453344 52 53 26
-0.038674 -0.001262 -0.453187 62 32 24
-0.047870 0.005525 -0.443119 34 37 18
0.154830 -0.201541 0.332453 179 191 174
-0.034142 -0.004131 -0.451132 51 56 44
-0.039817 -0.001527 -0.452959 125 133 128
-0.039125 -0.001151 -0.453372 177 201 168
-0.050508 0.020597 -0.445332 202 212 206
-0.039698 -0.000303 -0.453423 64 50 42
0.252395 -0.217547 0.420484 228 215 222
-0.039384 -0.000640 -0.453264 32 18 6
0.154830 -0.201541 0.332453 179 191 174
0.131912 -0.019402 0.495905 43 70 40
