ply
format ascii 1.0
element vertex 1248
property float x
property float y
property float z
property uchar red
property uchar green
property uchar blue
end_header
0.120100 0.430563 -0.464909 199 212 220
0.120100 0.430563 -0.464909 120 126 116
0.120100 0.430563 -0.464909 28 5 0
0.120100 0.430563 -0.464909 171 144 123
0.120100 0.430563 -0.464909 104 97 89
0.120100 0.430563 -0.464909 182 118 57
0.120100 0.430563 -0.464909 148 99 51
0.120100 0.430563 -0.464909 36 22 13
0.120100 0.430563 -0.464909 75 14 0
0.120100 0.430563 -0.464909 104 105 110
0.120100 0.430563 -0.464909 124 63 22
0.120100 0.430563 -0.464909 178 190 199
0.120100 0.430563 -0.464909 8 10 9
0.120100 0.430563 -0.464909 92 31 12
0.120100 0.430563 -0.464909 11 13 9
0.120100 0.430563 -0.464909 41 7 1
0.120100 0.430563 -0.464909 36 6 0
0.120100 0.430563 -0.464909 53 61 57
0.120100 0.430563 -0.464909 223 231 235
0.120100 0.430563 -0.464909 251 255 254
0.120100 0.430563 -0.464909 251 255 254
0.120100 0.430563 -0.464909 101 97 88
0.120100 0.430563 -0.464909 73 72 67
0.120100 0.430563 -0.464909 209 214 217
0.120100 0.430563 -0.464909 163 150 130
0.120100 0.430563 -0.464909 40 19 9
0.120100 0.430563 -0.464909 137 121 98
0.120100 0.430563 -0.464909 40 18 4
0.120100 0.430563 -0.464909 140 122 105
0.120100 0.430563 -0.464909 21 22 25
0.120100 0.430563 -0.464909 86 78 76
0.120100 0.430563 -0.464909 180 187 193
0.120100 0.430563 -0.464909 124 80 45
0.120100 0.430563 -0.464909 24 16 14
0.120100 0.430563 -0.464909 167 181 181
0.120100 0.430563 -0.464909 173 181 180
0.120100 0.430563 -0.464909 177 167 165
0.120100 0.430563 -0.464909 29 35 33
0.120100 0.430563 -0.464909 83 72 66
0.120100 0.430563 -0.464909 31 11 4
0.120100 0.430563 -0.464909 152 136 119
0.120100 0.430563 -0.464909 177 191 192
0.120100 0.430563 -0.464909 11 13 11
0.120100 0.430563 -0.464909 193 204 206
0.120100 0.430563 -0.464909 46 57 59
0.120100 0.430563 -0.464909 210 214 224
0.120100 0.430563 -0.464909 16 9 7
0.120100 0.430563 -0.464909 45 50 49
0.120100 0.430563 -0.464909 121 73 34
0.120100 0.430563 -0.464909 71 81 81
0.120100 0.430563 -0.464909 99 51 16
0.120100 0.430563 -0.464909 99 51 16
0.120100 0.430563 -0.464909 111 50 21
0.120100 0.430563 -0.464909 7 10 14
0.120100 0.430563 -0.464909 7 10 14
0.120100 0.430563 -0.464909 156 124 101
0.120100 0.430563 -0.464909 147 133 110
0.120100 0.430563 -0.464909 20 24 25
0.120100 0.430563 -0.464909 42 18 8
0.120100 0.430563 -0.464909 17 21 23
0.120100 0.430563 -0.464909 106 96 95
0.120100 0.430563 -0.464909 253 217 104
0.120100 0.430563 -0.464909 14 10 4
0.120100 0.430563 -0.464909 182 191 184
0.120100 0.430563 -0.464909 45 50 49
0.120100 0.430563 -0.464909 72 73 78
0.120100 0.430563 -0.464909 176 149 126
0.120100 0.430563 -0.464909 231 230 230
0.120100 0.430563 -0.464909 106 53 17
0.120100 0.430563 -0.464909 106 53 17
0.120100 0.430563 -0.464909 177 158 141
0.120100 0.430563 -0.464909 93 46 6
0.120100 0.430563 -0.464909 6 15 16
0.120100 0.430563 -0.464909 16 6 4
0.120100 0.430563 -0.464909 69 82 5
0.120100 0.430563 -0.464909 188 123 62
0.120100 0.430563 -0.464909 130 127 127
0.120100 0.430563 -0.464909 248 249 241
0.120100 0.430563 -0.464909 248 226 211
0.120100 0.430563 -0.464909 243 238 228
0.120100 0.430563 -0.464909 121 96 75
0.120100 0.430563 -0.464909 183 120 66
0.120100 0.430563 -0.464909 196 206 206
0.120100 0.430563 -0.464909 245 244 240
0.120100 0.430563 -0.464909 253 255 255
0.120100 0.430563 -0.464909 113 90 79
0.120100 0.430563 -0.464909 255 253 248
0.120100 0.430563 -0.464909 33 16 5
0.120100 0.430563 -0.464909 92 31 10
0.120100 0.430563 -0.464909 17 13 13
0.120100 0.430563 -0.464909 13 12 5
0.120100 0.430563 -0.464909 17 12 7
0.120100 0.430563 -0.464909 254 252 255
0.120100 0.430563 -0.464909 100 104 109
0.120100 0.430563 -0.464909 27 11 1
0.120100 0.430563 -0.464909 177 118 60
0.120100 0.430563 -0.464909 69 25 0
0.120100 0.430563 -0.464909 110 121 118
0.120100 0.430563 -0.464909 143 116 87
0.120100 0.430563 -0.464909 81 87 103
0.120100 0.430563 -0.464909 51 67 66
0.120100 0.430563 -0.464909 129 110 93
0.120100 0.430563 -0.464909 188 198 201
0.120100 0.430563 -0.464909 92 57 33
0.120100 0.430563 -0.464909 106 107 112
0.120100 0.430563 -0.464909 66 59 61
0.120100 0.430563 -0.464909 20 16 13
0.120100 0.430563 -0.464909 241 242 237
0.120100 0.430563 -0.464909 153 137 122
0.120100 0.430563 -0.464909 149 149 145
0.120100 0.430563 -0.464909 244 233 222
0.120100 0.430563 -0.464909 66 69 74
0.120100 0.430563 -0.464909 66 69 74
0.120100 0.430563 -0.464909 18 21 26
0.120100 0.430563 -0.464909 218 147 81
0.120100 0.430563 -0.464909 213 201 189
0.120100 0.430563 -0.464909 128 151 136
0.120100 0.430563 -0.464909 107 119 140
0.120100 0.430563 -0.464909 149 151 131
0.119537 0.427983 -0.450033 62 67 61
0.120309 0.430603 -0.457679 188 122 68
0.120100 0.430563 -0.464909 105 44 7
0.120100 0.430563 -0.464909 57 31 13
0.120100 0.430563 -0.464909 35 44 52
0.120106 0.430457 -0.464693 171 177 175
0.120048 0.430552 -0.464856 71 39 16
0.116604 0.398887 -0.425898 183 175 170
0.120100 0.430563 -0.464909 173 173 174
0.120106 0.430555 -0.464897 107 78 71
0.119995 0.430464 -0.464029 207 167 165
0.120026 0.430555 -0.464682 146 108 55
0.119939 0.430573 -0.464267 195 204 201
0.120070 0.430562 -0.464761 103 53 1
0.117641 0.431814 -0.460502 56 55 50
0.120037 0.429952 -0.462353 139 165 163
0.115632 0.434461 -0.462373 219 217 218
0.114641 0.432165 -0.458025 31 20 16
0.120100 0.430563 -0.464909 9 21 17
0.115319 0.431950 -0.458091 89 85 77
0.677110 0.069501 0.406001 98 113 118
0.480668 0.469559 0.044862 29 28 24
0.120100 0.430563 -0.464909 165 121 128
0.204444 0.311640 0.337055 218 218 213
0.118069 0.437330 -0.458823 16 27 39
0.118251 0.437649 -0.458880 106 96 73
0.039878 0.635545 -0.456073 252 237 220
0.119485 0.439082 -0.458907 111 108 100
0.119166 0.426974 -0.457457 57 45 28
0.118336 0.429826 -0.452890 151 126 102
0.123637 0.432821 -0.451870 33 23 21
-2.087533 -7.158740 1.611678 158 123 83
-0.109765 0.035804 -0.397946 200 217 217
0.097231 -1.147912 0.656066 179 183 189
0.119134 0.427480 -0.450122 98 92 92
0.268482 -0.537661 -0.135414 167 165 168
0.121311 0.411585 -0.461424 94 45 15
0.148403 0.437479 -0.462788 151 143 132
0.136179 0.432606 -0.459918 254 254 253
0.366302 0.234239 -0.462777 141 141 138
0.092335 0.315795 -0.396266 131 131 129
0.139028 0.420922 0.012636 37 10 0
0.116212 0.417256 -0.434259 132 119 110
0.095486 0.365343 -0.424157 147 134 112
-0.080463 0.053303 -0.322318 3 5 7
0.130312 0.407386 -0.424597 36 22 11
0.117007 0.247908 -0.288694 106 89 79
0.117007 0.247908 -0.288694 106 89 79
0.074566 0.355206 -0.427822 57 26 10
0.098233 0.382356 -0.428360 30 28 32
0.117464 0.430492 -0.454282 19 7 5
0.098178 0.385187 -0.430113 201 190 207
0.060945 0.334854 -0.420407 28 32 37
0.098478 0.387273 -0.430586 11 10 15
-1.133440 0.071175 3.604968 111 105 89
0.099602 0.385828 -0.426680 114 90 84
-3.667722 -1.276603 9.508708 57 57 57
0.111076 0.433318 -0.463097 120 118 117
0.119692 0.441450 -0.460015 25 12 3
0.099886 0.394506 -0.430967 68 62 62
0.099684 0.396556 -0.432553 15 10 11
-1.846646 2.379779 7.359443 81 92 91
0.113656 0.442919 -0.458918 45 47 37
0.112468 0.436441 -0.456015 121 118 113
0.763549 0.924428 -0.140201 62 46 38
-6.757547 -7.247924 12.495099 146 153 134
-0.099992 0.331605 -0.092176 50 39 24
-0.288962 -0.179673 0.434584 57 62 55
0.119170 0.439810 -0.462053 51 38 30
-0.227979 -0.850586 0.936596 146 134 122
-0.073110 -2.305516 3.407609 75 57 34
-0.354502 -20.455269 32.614784 202 222 218
0.120100 0.430563 -0.464909 15 14 10
0.034774 0.319169 0.372597 71 23 10
11.383705 2.240223 3.089939 80 57 31
13.861050 2.518034 4.002652 122 74 42
5.569298 1.196674 1.408359 129 129 121
5.569298 1.196674 1.408359 129 129 121
15.686016 2.779046 4.612848 108 76 42
0.120120 0.430596 -0.464884 88 95 103
13.942605 2.485360 4.135081 190 178 135
0.101712 0.389865 -0.421655 161 93 43
3.785170 0.306090 0.459804 30 31 36
2.097882 -0.026068 0.025819 156 139 110
0.120099 0.430562 -0.464909 121 135 136
0.271480 1.288664 0.714144 97 103 103
0.271747 1.261896 0.700729 142 140 131
0.120064 0.430578 -0.464846 66 76 86
0.120099 0.430562 -0.464908 183 187 178
0.581298 1.871445 1.271985 141 142 142
0.291124 1.224720 0.679681 83 93 105
0.318777 1.286532 0.706429 80 93 109
0.120099 0.430564 -0.464904 45 35 33
0.120100 0.430563 -0.464909 20 24 27
0.120100 0.430563 -0.464909 22 26 27
0.120100 0.430563 -0.464909 22 26 27
0.120099 0.430562 -0.464908 61 48 42
0.385991 1.398923 0.749822 153 152 147
0.120100 0.430563 -0.464909 71 81 96
0.120100 0.430563 -0.464909 70 82 104
0.120099 0.430562 -0.464908 32 24 22
0.321173 1.199245 0.663155 75 82 86
0.120099 0.430562 -0.464908 164 173 166
0.120099 0.430563 -0.464909 180 178 179
0.120099 0.430562 -0.464908 24 21 17
0.120099 0.430562 -0.464908 37 22 10
0.262039 1.213624 0.745507 147 152 154
0.120100 0.430563 -0.464908 173 175 168
0.120100 0.430563 -0.464907 70 87 102
0.120100 0.430563 -0.464907 9 18 22
0.114372 0.487898 -0.420388 88 91 95
0.120100 0.430563 -0.464908 91 100 102
0.120102 0.430573 -0.464886 122 117 111
0.120102 0.430573 -0.464886 122 117 111
0.120097 0.430560 -0.464904 144 132 125
0.120103 0.430578 -0.464878 146 146 145
0.120100 0.430563 -0.464908 42 51 50
0.120097 0.430560 -0.464903 113 99 90
0.120100 0.430563 -0.464909 76 77 86
0.120097 0.430560 -0.464903 41 31 21
0.120097 0.430560 -0.464903 144 131 125
0.120100 0.430563 -0.464908 117 111 108
0.120097 0.430559 -0.464902 145 135 125
0.120096 0.430559 -0.464901 65 52 43
0.120100 0.430563 -0.464908 69 65 55
0.120100 0.430564 -0.464905 161 156 150
0.120100 0.430565 -0.464904 114 109 106
0.120100 0.430566 -0.464902 54 54 61
0.120100 0.430563 -0.464907 24 24 24
0.120099 0.430562 -0.464906 159 160 150
0.120099 0.430562 -0.464908 161 153 144
0.120096 0.430559 -0.464899 79 62 50
0.120100 0.430566 -0.464903 88 90 97
0.120100 0.430565 -0.464903 143 142 139
0.120100 0.430565 -0.464904 156 150 145
0.120100 0.430566 -0.464903 81 80 86
0.120099 0.430563 -0.464908 34 2 1
0.120100 0.430566 -0.464903 78 84 93
0.120100 0.430566 -0.464903 78 84 93
0.271480 1.288664 0.714144 97 103 103
0.120100 0.430567 -0.464785 149 128 119
0.120095 0.430572 -0.464836 178 159 157
0.120091 0.430577 -0.464864 25 25 23
0.120158 0.430863 -0.464009 58 53 51
0.119077 0.868901 0.523906 75 89 97
0.120100 0.430563 -0.464909 137 138 142
0.116354 0.416148 -0.441881 163 168 161
0.304545 1.256552 0.693249 88 99 111
0.116706 0.416862 -0.442326 64 52 40
0.312117 1.245556 0.687523 149 149 144
0.116059 0.414140 -0.438678 82 72 62
0.120100 0.430563 -0.464907 125 124 122
0.113214 0.449994 -0.448136 147 144 141
0.096308 0.817328 0.493285 41 51 58
0.096308 0.817328 0.493285 41 51 58
-0.012115 0.490334 0.071277 185 180 171
0.404945 1.468175 0.778843 83 95 111
0.114881 0.432235 -0.462092 27 31 27
0.074426 0.524735 0.133481 15 24 27
0.120100 0.430563 -0.464908 64 78 89
0.113032 0.434025 -0.458009 49 65 76
0.113720 0.433050 -0.458507 34 37 42
0.120100 0.430563 -0.464908 181 184 193
0.120100 0.430563 -0.464908 80 78 73
0.120100 0.430563 -0.464908 30 21 16
0.120099 0.430563 -0.464908 22 23 20
0.117077 0.430615 -0.453622 202 186 186
0.116702 0.430555 -0.451981 144 92 56
0.119378 0.431791 -0.458616 175 191 201
0.120331 0.429683 -0.463317 91 69 47
0.120099 0.430562 -0.464909 127 137 142
-0.111682 0.462991 0.088160 26 49 55
0.404945 1.468175 0.778843 83 95 111
0.120099 0.430562 -0.464907 106 94 91
0.119926 0.430467 -0.460305 38 34 32
0.120078 0.429831 -0.458267 85 97 95
-0.328731 0.189409 0.154141 85 73 56
-0.090882 0.268448 0.291274 210 223 228
0.121213 0.430366 -0.461171 9 19 20
0.139206 0.909231 0.544368 82 94 108
0.119348 0.425358 -0.452068 107 98 93
0.115650 0.430640 -0.460362 69 76 93
0.116033 0.430788 -0.460483 25 29 30
0.116115 0.414052 -0.438315 26 20 22
0.118804 0.430640 -0.461549 13 22 27
0.113055 0.433855 -0.458092 50 75 80
0.113755 0.432948 -0.458568 104 101 98
0.148186 0.727338 -0.247257 105 103 91
0.120100 0.430563 -0.464908 39 42 43
0.112557 0.441769 -0.453872 158 156 148
0.117921 0.430807 -0.457096 156 108 68
0.117420 0.414175 -0.432263 102 92 83
0.112374 0.439474 -0.455375 89 92 100
0.120100 0.430564 -0.464906 18 14 18
0.117246 0.430734 -0.454580 97 85 95
0.112353 0.438742 -0.455423 98 105 115
0.112555 0.436359 -0.455613 15 16 13
0.116948 0.430404 -0.452311 6 1 2
0.116974 0.430204 -0.451732 157 66 46
0.116967 0.430158 -0.451525 69 17 1
0.112622 0.440999 -0.454506 104 111 121
0.041318 0.785725 0.482358 50 43 35
-0.182123 0.423441 0.097277 23 14 11
0.119077 0.868901 0.523906 75 89 97
-0.236753 0.361931 0.100635 81 96 99
-0.057537 0.502495 0.003559 45 55 57
0.007816 0.563107 0.241759 20 24 27
0.050905 0.630784 0.337790 86 97 101
0.120099 0.430562 -0.464908 112 101 95
0.056733 0.594661 0.292661 25 29 30
0.118361 0.430652 -0.461478 25 29 32
-0.016547 0.491943 0.073412 43 39 31
-0.337296 0.177277 0.162369 54 34 22
0.201151 0.717015 0.431647 134 135 130
0.617852 1.571003 0.809456 110 107 100
0.119517 0.429966 -0.457681 51 60 55
0.193186 0.621443 0.373081 125 130 133
0.010113 0.433606 -0.223414 148 107 64
0.112673 0.435575 -0.456502 89 88 86
-0.297535 -0.728571 0.805220 173 162 156
0.117711 0.257000 0.121647 182 130 81
0.157900 0.746458 1.453721 98 105 115
-0.338078 -0.234984 0.109118 99 97 95
0.120097 0.430562 -0.464904 47 66 72
-0.280854 -0.267896 0.032235 116 112 109
0.120126 0.430529 -0.464862 136 96 96
0.117305 0.430921 -0.462918 33 14 11
0.120370 0.430575 -0.464597 36 34 40
0.120329 0.430581 -0.464658 12 11 19
0.120322 0.430572 -0.464652 65 64 63
0.120322 0.430582 -0.464665 10 8 19
0.120315 0.430571 -0.464657 72 70 73
0.120321 0.430568 -0.464645 94 92 98
0.120309 0.430568 -0.464659 4 3 8
0.120100 0.430563 -0.464909 171 144 120
0.120276 0.430574 -0.464712 17 19 34
0.120264 0.430570 -0.464719 64 66 78
0.120100 0.430563 -0.464909 124 111 104
0.120100 0.430563 -0.464909 66 70 74
0.119985 0.430366 -0.464669 188 202 224
0.120105 0.430557 -0.464900 9 39 170
0.120105 0.430557 -0.464900 6 33 184
0.120105 0.430557 -0.464900 148 188 254
0.120105 0.430557 -0.464900 148 188 254
0.120105 0.430557 -0.464900 7 35 153
0.119990 0.430367 -0.464664 182 181 188
0.120106 0.430555 -0.464897 75 69 85
0.120281 0.430534 -0.464626 28 31 38
0.120105 0.430557 -0.464900 1 25 151
0.120100 0.430563 -0.464909 204 188 181
0.120115 0.430542 -0.464877 73 30 13
0.120107 0.430554 -0.464895 9 13 16
0.120100 0.430563 -0.464909 91 91 82
0.120176 0.430545 -0.464780 194 187 195
0.120071 0.430244 -0.464321 80 35 5
0.120146 0.430552 -0.464830 152 99 54
0.120082 0.430376 -0.464564 207 152 113
0.120173 0.430557 -0.464808 147 87 35
0.120105 0.430557 -0.464899 23 85 213
0.120157 0.430439 -0.464590 134 116 110
0.120141 0.430556 -0.464847 110 46 8
0.120242 0.430570 -0.464749 95 89 85
0.120241 0.430569 -0.464749 40 35 39
0.120139 0.430556 -0.464850 106 44 4
0.120119 0.430558 -0.464878 142 86 39
0.120229 0.430567 -0.464759 53 23 14
0.120229 0.430567 -0.464759 53 23 14
0.120220 0.430565 -0.464766 75 33 16
0.120211 0.430563 -0.464774 93 36 17
0.120100 0.430563 -0.464909 163 118 86
0.120089 0.430439 -0.464677 136 119 107
0.120134 0.430556 -0.464856 149 92 47
0.120164 0.430557 -0.464821 80 32 9
0.120086 0.430469 -0.464741 161 151 142
0.120151 0.430556 -0.464836 91 40 15
0.120132 0.430556 -0.464860 94 40 14
0.120117 0.430558 -0.464881 142 82 29
0.120106 0.430559 -0.464898 224 196 175
0.120104 0.430559 -0.464901 93 93 99
0.120104 0.430559 -0.464901 39 31 26
0.120104 0.430559 -0.464901 39 31 26
0.120115 0.430558 -0.464884 149 87 48
0.120114 0.430558 -0.464885 147 87 39
0.120167 0.430556 -0.464815 4 6 5
0.120183 0.430557 -0.464798 12 12 14
0.120107 0.430559 -0.464897 211 174 150
0.120121 0.430556 -0.464874 110 51 10
0.120154 0.430555 -0.464830 20 17 19
0.120100 0.430563 -0.464909 82 35 18
0.120118 0.430557 -0.464879 14 18 16
0.120110 0.430512 -0.464797 239 171 122
0.120092 0.430469 -0.464734 230 232 227
0.120099 0.430482 -0.464752 172 122 88
0.120128 0.430555 -0.464864 4 9 5
0.120122 0.430556 -0.464872 136 83 40
0.120134 0.430555 -0.464856 19 19 19
0.120109 0.430514 -0.464803 97 70 59
0.120109 0.430517 -0.464809 155 113 81
0.120104 0.430560 -0.464901 37 24 14
0.120109 0.430557 -0.464892 210 164 134
0.120104 0.430559 -0.464901 155 138 127
0.120157 0.430553 -0.464824 21 19 22
0.120190 0.430555 -0.464785 36 36 38
0.120118 0.430556 -0.464878 66 41 27
0.120104 0.430559 -0.464899 228 201 186
0.120103 0.430560 -0.464901 99 98 95
0.120109 0.430518 -0.464811 164 125 92
0.120120 0.430554 -0.464873 44 25 19
0.120103 0.430560 -0.464901 20 21 22
0.120112 0.430555 -0.464885 134 96 73
0.120112 0.430555 -0.464885 134 96 73
0.120121 0.430554 -0.464872 148 145 145
0.120168 0.430550 -0.464805 17 16 21
0.120056 0.430409 -0.464660 106 97 90
0.120205 0.430550 -0.464758 11 12 10
0.120115 0.430554 -0.464879 116 81 56
0.120254 0.430553 -0.464702 92 84 79
0.120056 0.430405 -0.464654 127 118 111
0.120102 0.430561 -0.464903 207 154 113
0.120311 0.430551 -0.464627 20 20 22
0.120508 0.430581 -0.464436 147 141 130
0.120095 0.430461 -0.464716 171 173 168
0.120130 0.430548 -0.464851 25 26 31
0.120100 0.430563 -0.464909 26 29 24
0.121163 0.430662 -0.463763 117 111 99
0.120325 0.430537 -0.464579 58 50 47
0.120183 0.430539 -0.464765 130 73 31
0.120103 0.430463 -0.464710 215 221 217
0.120288 0.430530 -0.464613 83 44 23
0.120100 0.430566 -0.464902 156 157 149
0.120069 0.430393 -0.464613 174 181 174
0.121655 0.430629 -0.463066 74 82 86
0.122923 0.430751 -0.461693 190 184 172
0.122923 0.430751 -0.461693 190 184 172
0.120178 0.430533 -0.464759 100 55 27
0.120152 0.430536 -0.464799 118 75 52
0.120157 0.430536 -0.464791 112 64 39
0.120195 0.430526 -0.464723 131 96 74
0.120190 0.430527 -0.464731 98 71 67
0.120519 0.430489 -0.464236 131 128 129
0.120344 0.430502 -0.464485 20 23 18
0.120281 0.430506 -0.464573 29 31 26
0.120223 0.430513 -0.464662 18 17 15
0.120735 0.430375 -0.463727 146 141 143
0.120111 0.430412 -0.464599 168 177 172
0.120111 0.430412 -0.464599 168 177 172
0.120465 0.430427 -0.464177 64 75 90
0.120380 0.430442 -0.464316 61 73 85
0.120100 0.430563 -0.464909 66 84 99
0.120093 0.430549 -0.464784 141 147 140
0.120072 0.430332 -0.464487 254 255 255
0.120563 0.430364 -0.463923 24 18 18
0.124357 0.428871 -0.456015 24 18 18
0.120152 0.430402 -0.464525 89 71 57
0.120100 0.430562 -0.464909 66 56 46
0.120103 0.430203 -0.464182 231 233 232
0.120119 0.430535 -0.464829 16 20 19
0.120278 0.430030 -0.463608 158 120 99
0.120262 0.430295 -0.464168 23 28 27
0.120609 0.428793 -0.460669 191 199 191
0.120115 0.430540 -0.464841 13 17 16
0.119964 0.429927 -0.463808 187 188 183
0.120140 0.430506 -0.464732 26 26 25
0.120099 0.430562 -0.464909 51 47 46
0.120099 0.430562 -0.464909 51 47 46
0.120103 0.430554 -0.464884 64 72 75
0.120100 0.430563 -0.464909 26 17 10
0.122711 0.427155 -0.457013 106 125 129
0.120099 0.430562 -0.464909 173 187 195
0.120102 0.430553 -0.464882 183 194 200
0.120112 0.430557 -0.464862 185 196 189
0.120112 0.430569 -0.464890 109 106 97
0.120470 0.430514 -0.445858 185 120 70
0.119863 0.430453 -0.464260 58 56 46
0.105165 0.433398 -0.429217 106 55 23
0.124929 0.448428 -0.409136 18 8 4
0.120100 0.430563 -0.464909 79 40 14
0.120105 0.430557 -0.464900 1 28 125
0.120105 0.430557 -0.464900 1 28 125
0.120105 0.430557 -0.464900 128 166 243
0.120105 0.430557 -0.464900 93 127 237
0.120131 0.430557 -0.464866 80 23 0
0.120098 0.430435 -0.464720 194 159 132
0.121267 0.432467 -0.459400 124 123 121
0.120100 0.430563 -0.464909 87 90 89
0.119994 0.430370 -0.464664 203 216 235
0.745791 0.024075 0.198334 168 125 94
0.120105 0.430558 -0.464898 236 229 227
0.120104 0.430559 -0.464901 42 19 9
0.120104 0.430559 -0.464901 93 60 41
0.120105 0.430557 -0.464897 15 15 15
0.120105 0.430557 -0.464897 15 15 15
0.120103 0.430560 -0.464901 26 24 21
0.120100 0.430563 -0.464909 91 49 15
0.120101 0.430561 -0.464905 43 46 44
0.122761 0.427353 -0.457883 76 85 82
0.120076 0.430074 -0.462691 145 140 140
0.120124 0.430526 -0.464776 47 54 54
0.120099 0.430562 -0.464908 111 118 124
0.120100 0.430562 -0.464907 19 20 23
0.120100 0.430562 -0.464907 173 180 186
0.120113 0.430556 -0.464858 159 155 149
0.120100 0.430552 -0.464878 186 198 196
0.120099 0.430562 -0.464907 88 102 105
0.120099 0.430562 -0.464907 88 102 105
0.120099 0.430562 -0.464908 113 100 91
0.120099 0.430562 -0.464908 56 43 34
0.120098 0.430527 -0.464796 55 41 38
0.120100 0.430562 -0.464905 130 141 135
0.120100 0.430563 -0.464909 49 39 35
0.097468 0.326805 0.121190 39 30 25
0.120110 0.430559 -0.464868 97 85 77
0.120099 0.430563 -0.464909 73 79 78
-0.152515 -0.092998 0.444218 154 151 140
0.120110 0.430559 -0.464865 182 180 174
0.120110 0.430559 -0.464867 191 201 202
0.120110 0.430559 -0.464867 191 201 202
0.120108 0.430549 -0.464836 84 97 100
0.121782 0.421302 -0.446511 22 22 22
-0.165693 -0.106016 0.448550 103 86 78
0.120099 0.430562 -0.464909 105 114 108
0.120099 0.430562 -0.464909 105 114 108
0.121728 0.422205 -0.447370 86 77 69
0.120100 0.430563 -0.464907 144 140 135
5.195773 1.356321 1.131122 180 119 62
0.120099 0.430541 -0.464840 138 125 119
0.542794 0.485367 0.120231 136 129 123
0.400932 0.453668 0.034789 23 25 24
0.120135 0.430464 -0.463478 5 10 8
0.120872 0.429630 -0.445505 146 151 147
0.374104 0.451322 -0.015423 24 16 13
0.120100 0.430563 -0.464909 26 26 24
0.121929 0.432011 -0.448197 240 195 147
0.117645 0.430108 -0.463133 156 130 76
0.120104 0.430559 -0.464901 25 18 11
0.120064 0.430223 -0.463265 127 117 109
0.122382 0.430264 -0.460326 63 37 25
0.120102 0.430112 -0.462803 114 122 128
0.124547 0.423817 -0.387814 118 121 122
0.122307 0.422344 -0.448563 122 119 126
0.120100 0.430562 -0.464906 128 139 141
0.120099 0.430558 -0.464890 160 167 160
0.401533 0.452572 0.060906 12 17 21
0.133793 0.432440 -0.451045 101 97 86
0.120111 0.430523 -0.464444 14 22 24
0.120818 0.429664 -0.449550 27 30 29
0.121559 0.428158 -0.422846 76 82 80
0.480668 0.469559 0.044862 29 28 24
0.117243 0.431626 -0.457424 157 130 112
0.119068 0.430603 -0.455595 114 92 86
0.510966 0.348878 0.204577 79 35 13
0.121380 0.428623 -0.448237 128 129 127
0.116595 0.431278 -0.462593 22 20 24
0.121392 0.428827 -0.441468 29 31 30
0.370356 0.451374 -0.008881 76 72 73
0.370356 0.451374 -0.008881 76 72 73
0.465889 0.468634 0.051861 76 85 80
0.119745 0.428533 -0.451520 148 145 134
0.122708 0.419664 1.339352 25 9 16
0.118847 0.430671 -0.455311 18 17 8
0.120178 0.430549 -0.458460 123 140 115
0.120108 0.430553 -0.464893 123 72 49
0.120087 0.430698 -0.464498 174 170 161
0.120081 0.430730 -0.464384 5 5 10
0.120100 0.430563 -0.464909 36 10 1
0.120101 0.430630 -0.464736 191 169 165
0.124958 0.443636 -0.442678 46 47 68
0.120095 0.430655 -0.464643 191 189 184
0.120097 0.430646 -0.464669 201 204 203
0.120112 0.430567 -0.464894 120 117 108
0.120110 0.430592 -0.464872 199 176 165
0.120081 0.430777 -0.464125 102 104 118
0.120123 0.430594 -0.464893 124 68 9
0.120107 0.430586 -0.464881 161 165 166
0.120064 0.430567 -0.464837 34 32 37
0.120063 0.430565 -0.464840 80 37 10
0.120108 0.430583 -0.464898 241 249 246
0.120107 0.430583 -0.464899 154 107 64
0.120046 0.430551 -0.464856 164 139 115
0.245436 0.568514 0.292789 118 59 22
0.120100 0.430563 -0.464909 116 72 23
0.120047 0.430551 -0.464856 165 141 122
0.120104 0.430580 -0.464904 30 16 16
0.120065 0.430564 -0.464843 217 165 125
0.120106 0.430582 -0.464901 148 89 37
0.120095 0.430675 -0.464241 185 129 79
0.120103 0.430579 -0.464906 211 226 247
0.120101 0.430578 -0.464907 161 114 114
0.120102 0.430579 -0.464906 89 48 42
0.120102 0.430579 -0.464906 56 22 15
0.120104 0.430581 -0.464903 209 170 165
0.120101 0.430579 -0.464907 49 13 11
0.120101 0.430578 -0.464907 114 68 66
0.120102 0.430579 -0.464905 107 62 56
0.120102 0.430580 -0.464905 191 146 140
0.120100 0.430578 -0.464908 174 124 123
0.120119 0.430592 -0.464893 206 197 197
0.120101 0.430579 -0.464906 95 44 41
0.120100 0.430563 -0.464909 27 3 0
0.120119 0.430592 -0.464893 72 41 28
0.120102 0.430580 -0.464903 197 154 148
0.120104 0.430626 -0.464426 11 22 44
0.120119 0.430592 -0.464893 142 93 54
0.120124 0.430660 -0.464120 8 11 30
0.120120 0.430593 -0.464892 23 7 5
0.120100 0.430579 -0.464906 102 49 48
0.120120 0.430593 -0.464892 16 15 7
0.120142 0.430721 -0.463642 139 146 154
0.120124 0.430596 -0.464891 89 49 20
0.120161 0.430761 -0.463281 13 15 23
0.120121 0.430594 -0.464892 153 99 38
0.120352 0.431224 -0.459355 143 151 162
0.120121 0.430594 -0.464892 28 17 15
0.120102 0.430581 -0.464902 170 129 123
0.120109 0.430586 -0.464896 224 174 120
0.120108 0.430624 -0.464410 4 12 39
0.120088 0.430583 -0.464745 52 10 1
0.120122 0.430595 -0.464891 37 25 17
0.120101 0.430580 -0.464903 122 71 67
0.120123 0.430595 -0.464891 81 41 20
0.120102 0.430581 -0.464901 127 73 71
0.120101 0.430581 -0.464901 207 158 154
0.120116 0.430632 -0.464304 11 13 24
0.120185 0.430764 -0.463074 4 6 19
0.120109 0.430587 -0.464895 144 89 30
0.120117 0.430591 -0.464892 143 95 40
0.120100 0.430599 -0.464595 10 24 52
0.120491 0.431278 -0.457928 87 83 97
0.120172 0.430714 -0.463436 10 7 23
0.120118 0.430624 -0.464338 14 17 29
0.120106 0.430605 -0.464519 24 35 61
0.120079 0.430581 -0.464831 30 35 36
0.120160 0.430681 -0.463702 109 110 131
0.120133 0.430638 -0.464145 1 1 19
0.120101 0.430582 -0.464896 171 128 122
0.120100 0.430581 -0.464893 224 185 182
0.120179 0.430697 -0.463469 12 12 16
0.120100 0.430563 -0.464908 228 233 237
0.120089 0.430579 -0.464756 93 92 89
0.120107 0.430599 -0.464550 133 154 185
0.120100 0.430563 -0.464909 147 134 123
0.120111 0.430602 -0.464503 3 10 42
0.120101 0.430582 -0.464887 59 12 15
0.120101 0.430583 -0.464889 224 174 171
0.120103 0.430584 -0.464890 51 14 8
0.120103 0.430584 -0.464889 228 192 180
0.120102 0.430584 -0.464836 121 63 56
0.120068 0.430562 -0.464842 202 201 198
0.120101 0.430583 -0.464876 221 172 176
0.120100 0.430563 -0.464909 169 110 49
0.120108 0.430587 -0.464890 112 53 21
0.120108 0.430587 -0.464890 112 53 21
0.120100 0.430563 -0.464909 131 76 25
0.120102 0.430584 -0.464882 172 117 114
0.120101 0.430585 -0.464662 10 23 49
0.120103 0.430585 -0.464885 223 186 180
0.120056 0.430554 -0.464850 251 247 243
0.120103 0.430584 -0.464878 148 103 98
0.120103 0.430584 -0.464876 217 168 164
0.120103 0.430584 -0.464876 217 168 164
0.120056 0.430554 -0.464850 184 159 137
0.120103 0.430584 -0.464880 193 159 148
0.120118 0.430594 -0.464889 55 53 58
0.120104 0.430585 -0.464880 205 164 160
0.120118 0.430593 -0.464889 58 63 75
0.120104 0.430585 -0.464877 64 36 22
0.120104 0.430585 -0.464873 64 22 18
0.120112 0.430586 -0.464730 211 172 172
0.120104 0.430584 -0.464867 216 174 170
0.120104 0.430585 -0.464867 141 102 97
0.120105 0.430586 -0.464874 218 174 175
0.120118 0.430584 -0.464682 197 150 144
0.120105 0.430585 -0.464861 240 195 192
0.120121 0.430585 -0.464652 92 49 39
0.120116 0.430584 -0.464700 116 72 65
0.120160 0.430592 -0.464275 31 26 31
0.120120 0.430583 -0.464671 217 188 183
0.120111 0.430590 -0.464878 167 111 55
0.120108 0.430574 -0.464651 11 22 44
0.120070 0.430561 -0.464831 212 184 160
0.120111 0.430589 -0.464869 62 16 0
0.120092 0.430569 -0.464800 17 15 30
0.127175 0.431003 -0.308521 80 31 16
0.120100 0.430563 -0.464909 58 58 57
0.120107 0.430583 -0.464897 236 238 235
0.120116 0.430590 -0.464895 75 65 50
0.120101 0.430578 -0.464907 37 1 5
0.120100 0.430578 -0.464909 112 63 63
0.120100 0.430563 -0.464909 78 41 8
0.120087 0.430549 -0.464870 217 221 224
0.120123 0.430595 -0.464891 140 102 65
0.120122 0.430595 -0.464891 38 16 9
0.120100 0.430563 -0.464909 140 94 44
0.120090 0.430571 -0.464884 228 233 237
0.120101 0.430582 -0.464892 76 28 22
0.120107 0.430587 -0.464887 119 59 5
0.120100 0.430563 -0.464909 21 22 17
0.133899 0.437259 -0.124532 92 51 32
0.120099 0.430562 -0.464907 125 98 80
0.120100 0.430563 -0.464909 172 172 179
0.120064 0.430033 -0.462751 81 84 91
4.218799 -0.190137 0.619618 12 9 3
0.120138 0.430290 -0.462893 24 23 15
0.126353 0.431076 -0.455315 151 98 94
0.120100 0.430562 -0.464908 23 25 25
0.120729 0.430390 -0.462919 64 31 9
0.121304 0.430125 -0.461047 30 22 11
0.121012 0.430295 -0.462349 205 146 86
0.121012 0.430295 -0.462349 205 146 86
0.121521 0.430072 -0.461270 83 52 30
0.123045 0.429647 -0.458966 17 12 12
0.124515 0.420614 -0.450090 226 233 226
0.120100 0.430563 -0.464909 14 23 22
0.121417 0.430090 -0.461021 200 176 150
0.127055 0.427694 -0.447557 51 56 58
0.130580 0.426172 -0.434157 105 97 88
0.122876 0.429706 -0.459196 110 78 56
0.126912 0.405258 -0.436861 57 29 9
0.909868 0.386788 0.359039 131 132 117
0.829469 0.290619 0.546348 234 221 215
0.819358 0.492585 0.488791 118 74 73
0.120113 0.430590 -0.464886 123 87 57
0.121382 0.430196 -0.461620 105 69 47
-1.033162 -2.565240 3.389454 78 68 56
0.114300 0.445264 -0.444708 125 137 162
0.115192 0.442664 -0.447966 52 46 62
0.119941 0.430657 -0.464575 39 26 17
0.120101 0.430612 -0.464765 134 85 38
0.120216 0.434132 -0.460286 121 76 55
0.119189 0.434634 -0.457264 101 49 25
0.119189 0.434634 -0.457264 101 49 25
0.119863 0.430698 -0.464355 12 11 8
0.120249 0.431255 -0.463982 84 75 62
0.118844 0.434510 -0.457010 41 21 16
0.120652 0.429929 -0.463203 24 11 2
0.119831 0.430731 -0.464254 165 166 160
0.119832 0.430731 -0.464255 169 169 163
0.120566 0.430202 -0.462806 29 15 9
0.120247 0.431063 -0.464192 70 35 10
0.120294 0.431314 -0.463796 157 107 58
0.120312 0.431250 -0.463824 164 163 154
0.120319 0.431209 -0.463853 95 84 64
0.120058 0.430564 -0.464684 186 154 115
0.120237 0.430990 -0.464285 171 149 136
0.120305 0.431259 -0.463832 72 32 3
0.120268 0.431053 -0.464158 91 50 24
0.120305 0.431247 -0.463847 86 49 24
0.119789 0.430669 -0.463946 122 139 154
0.119786 0.430670 -0.463922 5 10 18
0.119835 0.430628 -0.464078 95 64 30
0.120003 0.430562 -0.464649 178 145 104
0.119817 0.430639 -0.464002 109 84 64
0.119841 0.430624 -0.464095 174 131 89
0.119993 0.430562 -0.464619 51 49 28
0.119796 0.430648 -0.463874 15 20 30
0.119803 0.430642 -0.463896 118 121 129
0.119789 0.430651 -0.463825 6 6 13
0.119804 0.430641 -0.463885 2 10 13
0.119818 0.430630 -0.463931 20 28 30
0.120006 0.430559 -0.464645 201 164 112
0.119846 0.430614 -0.464053 130 102 70
0.119818 0.430630 -0.463912 16 26 37
0.119991 0.430559 -0.464598 236 201 166
0.119991 0.430559 -0.464598 236 201 166
0.119838 0.430617 -0.463989 31 22 21
0.119808 0.430634 -0.463844 5 13 22
0.120014 0.430557 -0.464661 175 131 76
0.119823 0.430624 -0.463880 48 55 64
0.119807 0.431450 -0.460631 41 19 6
0.119883 0.430593 -0.464163 118 73 26
0.119995 0.430558 -0.464605 174 125 66
0.120016 0.430557 -0.464665 163 124 72
0.119852 0.430608 -0.464007 17 9 2
0.119995 0.430557 -0.464603 94 42 8
0.119995 0.430557 -0.464603 94 42 8
0.119862 0.430603 -0.464034 93 78 59
0.120017 0.430556 -0.464665 178 132 77
0.119826 0.430622 -0.463851 135 142 142
0.119997 0.430557 -0.464604 205 171 142
0.120019 0.430556 -0.464668 125 74 25
0.120019 0.430556 -0.464668 125 74 25
0.119886 0.430591 -0.464119 178 170 157
0.119992 0.430556 -0.464579 174 120 56
0.119964 0.430572 -0.464302 215 224 221
0.119986 0.430568 -0.464388 125 136 131
0.120013 0.430564 -0.464497 216 213 199
0.120098 0.430570 -0.464884 27 48 65
0.120255 0.430716 -0.464499 176 149 121
0.120064 0.430567 -0.464702 147 88 36
0.120083 0.430571 -0.464785 188 139 85
0.120077 0.430566 -0.464774 161 113 58
0.120088 0.430572 -0.464814 64 20 14
0.120105 0.430581 -0.464907 216 179 170
0.120102 0.430580 -0.464878 172 109 38
0.119996 0.430522 -0.464105 113 58 47
0.120070 0.430562 -0.464757 114 74 36
0.120104 0.430583 -0.464892 176 108 37
0.120072 0.430563 -0.464761 121 84 29
0.120073 0.430563 -0.464765 90 51 12
0.120073 0.430563 -0.464765 90 51 12
0.120049 0.430546 -0.464541 210 166 163
0.120076 0.430565 -0.464771 191 156 115
0.120027 0.430528 -0.464357 124 80 70
0.120078 0.430567 -0.464776 168 110 31
0.119709 0.430197 -0.460624 218 171 167
0.119100 0.429266 -0.448948 207 168 160
0.120105 0.430590 -0.464904 144 89 30
0.119959 0.430432 -0.463665 128 75 72
0.119638 0.429963 -0.459110 222 189 184
0.120100 0.430563 -0.464909 157 117 107
0.119926 0.430370 -0.463262 175 120 124
0.120096 0.430585 -0.464866 136 82 30
0.119995 0.430448 -0.464005 121 93 82
0.119995 0.430448 -0.464005 121 93 82
0.120136 0.430543 -0.464754 15 11 11
0.120106 0.430594 -0.464900 103 45 0
0.123092 0.430090 -0.438361 9 15 15
0.118929 0.427296 -0.437250 129 80 66
0.120321 0.430681 -0.464359 208 174 138
0.119979 0.430410 -0.463815 129 95 85
0.120103 0.430594 -0.464898 36 20 6
0.122383 0.429888 -0.445586 8 56 179
0.119992 0.430411 -0.463923 239 207 203
0.120100 0.430563 -0.464909 188 139 103
0.120496 0.430691 -0.463776 98 87 74
0.120592 0.430691 -0.463370 78 30 6
0.120102 0.430590 -0.464856 83 92 97
0.120003 0.430560 -0.464642 87 47 11
0.119855 0.430607 -0.463985 65 68 70
0.119990 0.430471 -0.463990 160 115 112
0.119990 0.430471 -0.463990 160 115 112
0.119900 0.430357 -0.462991 202 156 158
0.120097 0.430589 -0.464869 168 114 57
0.120014 0.430429 -0.464144 119 68 37
0.120123 0.430650 -0.464725 112 70 37
0.120009 0.430562 -0.464665 190 177 154
0.120001 0.430555 -0.464605 186 148 108
0.119971 0.430561 -0.464430 158 105 56
0.120166 0.430632 -0.464695 133 126 100
0.120072 0.430563 -0.464761 131 92 57
0.119998 0.430507 -0.464103 130 77 76
0.120083 0.430570 -0.464792 76 30 0
0.118929 0.427296 -0.437250 129 80 66
0.120040 0.430564 -0.464609 197 166 126
0.120005 0.430580 -0.464689 126 88 33
0.120073 0.430564 -0.464762 85 70 49
0.120249 0.431280 -0.463957 176 164 146
0.120006 0.430567 -0.464671 73 92 98
0.120134 0.430663 -0.464707 112 69 24
0.120165 0.430695 -0.464654 115 81 47
0.120083 0.430570 -0.464791 156 111 43
0.120540 0.430771 -0.463595 211 216 222
0.120106 0.430588 -0.464904 172 104 33
0.120012 0.430561 -0.464671 160 118 69
0.120106 0.430588 -0.464898 233 185 124
0.115986 0.432116 -0.461536 168 184 183
0.118177 0.432916 -0.459310 116 94 76
0.121972 0.432696 -0.462288 165 123 82
0.121984 0.432752 -0.462224 58 20 1
0.121928 0.432965 -0.461640 106 103 82
0.121812 0.432053 -0.463318 75 29 6
0.115942 0.432121 -0.461101 186 137 81
0.118115 0.435754 -0.457653 95 121 130
0.122144 0.434841 -0.462338 111 80 50
0.118391 0.435763 -0.458360 96 79 64
0.118783 0.430478 -0.459866 21 15 7
0.116901 0.431486 -0.461310 13 19 19
0.116133 0.431932 -0.461701 138 150 143
0.120242 0.435934 -0.462200 33 35 29
0.120100 0.430563 -0.464909 73 63 53
0.134769 0.423616 -0.462784 46 44 30
0.122464 0.422512 -0.460353 26 21 15
0.116605 0.433015 -0.461198 16 16 8
0.120422 0.430019 -0.463088 164 134 93
0.124617 0.434428 -0.462141 210 181 139
0.601971 -1.218132 0.303698 111 107 83
0.124257 0.428668 -0.463196 148 106 80
0.124130 0.427829 -0.460148 139 94 37
0.123953 0.429072 -0.461691 159 169 182
0.123953 0.429072 -0.461691 159 169 182
0.114033 0.432814 -0.459836 2 19 16
0.120598 0.430570 -0.463244 32 25 17
0.129978 0.429014 -0.459522 253 255 255
0.128393 0.428453 -0.457892 77 74 56
0.586031 -0.376264 0.084933 52 63 59
0.123611 0.435263 -0.450042 158 122 81
0.123887 0.430163 -0.460437 12 21 30
0.119063 0.411188 -0.460272 220 183 101
0.124286 0.426610 -0.459729 13 19 13
0.124249 0.427901 -0.460532 26 25 19
0.123800 0.427878 -0.460803 31 32 27
0.179657 0.372475 -0.463217 9 12 7
0.119842 0.430516 -0.461912 168 164 160
0.411001 1.309357 -0.139073 47 33 26
0.272589 1.580870 -0.158802 91 103 103
0.791141 1.294887 -0.071516 56 57 51
0.120100 0.430563 -0.464909 89 86 67
0.707221 1.940710 -0.037834 66 74 77
0.123727 0.428851 -0.462670 33 34 29
0.125503 0.428543 -0.462264 142 156 143
0.136391 0.458324 -0.460033 214 178 150
0.120100 0.430563 -0.464909 60 72 70
0.628557 0.933449 -0.161621 115 109 100
0.553291 0.921778 -0.175616 11 14 16
0.646049 0.949294 -0.154638 56 54 49
0.736054 0.985404 -0.132511 172 188 189
0.122282 0.290538 -0.387066 118 101 91
0.124636 0.426967 -0.459539 15 20 11
0.124409 0.427559 -0.460130 197 210 199
0.457999 1.140343 -0.148357 27 28 30
1.537007 1.142036 0.035319 185 178 172
0.117437 0.387169 -0.451787 82 104 99
0.112953 0.322365 -0.437520 28 23 20
0.129027 0.441276 -0.462652 135 83 45
0.125487 0.436961 -0.463443 135 76 27
0.701280 0.928440 -0.148649 45 43 31
0.090113 0.323734 -0.408761 22 33 28
0.128111 0.271752 -0.409102 165 175 176
0.666966 0.869660 -0.172537 30 25 19
0.527972 0.928677 -0.178403 12 12 16
0.123120 0.427231 -0.460984 83 95 89
1.368388 0.884264 -0.007225 98 103 112
1.368388 0.884264 -0.007225 98 103 112
0.135567 0.428778 -0.455385 255 254 254
0.124328 0.435350 -0.461635 50 38 24
-0.156819 -0.644542 -0.087368 41 10 4
0.676572 0.958802 -0.147252 76 68 69
0.421089 0.933288 -0.194332 74 86 86
0.458001 1.013850 -0.171014 27 30 29
0.237143 1.488124 -0.174415 25 29 30
0.707221 1.940710 -0.037834 66 74 77
0.087637 0.318436 -0.409666 23 27 26
1.441618 0.905786 0.007588 176 168 157
0.091032 0.328682 -0.410077 128 139 135
1.549137 1.808944 0.064742 168 163 157
1.509479 0.903900 0.020833 175 165 155
1.509479 0.903900 0.020833 175 165 155
0.119448 0.425733 -0.459583 46 66 66
0.118914 0.426894 -0.457595 112 88 69
0.117088 0.438138 -0.458310 17 21 32
0.115839 0.451262 -0.449751 12 14 29
0.123915 0.428473 -0.457868 159 114 72
0.123999 0.430809 -0.458937 184 139 97
0.123906 0.430022 -0.460554 147 166 173
0.123911 0.429870 -0.460747 126 146 150
0.123911 0.429870 -0.460747 126 146 150
0.123923 0.429831 -0.460747 25 35 35
0.123901 0.429686 -0.461042 18 26 34
0.123928 0.429594 -0.461057 95 108 112
0.123947 0.429542 -0.461047 14 23 32
0.123992 0.429455 -0.460957 117 118 131
0.123985 0.429285 -0.461234 73 73 83
0.123978 0.429198 -0.461396 50 54 62
0.124178 0.427540 -0.461172 226 181 124
0.123838 0.429091 -0.462123 25 17 18
0.123840 0.428982 -0.462279 135 111 86
0.123671 0.428976 -0.462860 109 55 20
0.123818 0.428709 -0.462847 22 12 10
0.385314 -0.306484 -0.324005 178 194 194
0.123940 0.428458 -0.463288 146 100 65
0.124021 0.428482 -0.463327 146 98 54
0.124057 0.428412 -0.463325 11 19 26
0.124162 0.428508 -0.463286 23 11 11
0.120951 0.432408 -0.444628 224 185 142
0.123157 0.436854 -0.446447 114 79 58
0.117094 0.433556 -0.461080 249 167 171
0.120837 0.432890 -0.443597 214 177 135
0.122688 0.429273 -0.453235 163 123 69
0.123262 0.437468 -0.446533 20 25 29
0.120597 0.461793 -0.463114 131 168 165
0.121866 0.431904 -0.448186 230 190 148
0.118992 0.426728 -0.457865 65 56 40
0.118912 0.440522 -0.459756 47 18 13
0.119131 0.440374 -0.459666 113 109 102
0.009717 -1.903447 -0.122074 101 55 15
0.124164 0.428320 -0.463313 25 28 35
0.123298 0.435994 -0.447760 15 12 9
0.276266 0.124272 0.229429 133 94 56
0.035075 -0.123776 0.040898 161 140 133
0.088287 0.401076 -0.453752 220 224 234
0.107161 0.418003 -0.459908 212 88 85
0.108917 0.419492 -0.460492 140 55 26
0.118262 0.428309 -0.462833 179 191 193
-0.013900 -0.779300 -0.254222 81 76 64
-0.020594 -0.652925 -0.224292 220 197 165
0.112877 0.412236 -0.442071 22 40 64
0.120410 0.430013 -0.463180 111 101 89
0.117970 0.425712 -0.437203 91 87 84
0.117970 0.425712 -0.437203 91 87 84
0.120403 0.429992 -0.463320 112 135 136
0.117174 0.425071 -0.427328 141 140 137
0.120408 0.430002 -0.463253 162 182 192
0.120407 0.429999 -0.463272 121 145 154
0.120409 0.430006 -0.463222 242 239 236
0.120103 0.429603 -0.460794 84 80 77
0.368032 -0.239771 0.227060 31 49 100
0.129765 0.417524 -0.447609 142 157 163
0.113292 0.393027 -0.429843 28 28 39
0.469086 -0.564137 0.272616 252 253 253
0.255348 -1.195806 0.869038 40 53 62
0.133034 -1.004413 0.796819 48 26 14
0.119406 0.428309 -0.453448 141 137 136
0.119406 0.428309 -0.453448 141 137 136
0.120438 -1.474396 0.925469 71 40 18
-1.972260 -7.581616 8.377988 26 39 59
0.134352 0.437327 -0.462651 41 55 58
0.111621 0.420039 -0.448918 186 167 105
-1.830468 -2.129217 1.207884 19 2 0
4.159410 -1.168795 0.733020 3 6 7
0.115074 0.423046 -0.462352 91 81 72
-1.050007 -9.269652 1.653137 93 83 78
-1.114686 -2.512040 1.130062 229 242 246
-1.311265 -2.390015 1.394625 40 28 13
0.227314 -0.878619 0.228942 6 15 11
0.121807 0.417057 -0.462200 116 85 53
0.134603 0.438228 -0.463189 118 126 142
0.148403 0.437479 -0.462788 151 143 132
0.101376 0.489386 -0.451020 134 144 154
0.086857 0.530181 -0.439125 139 147 158
0.196487 0.425800 -0.462890 168 154 135
0.070549 0.575501 -0.426444 151 160 167
0.101697 0.486980 -0.454495 60 76 91
0.532093 0.322064 -0.462669 101 52 19
0.105053 0.475053 -0.460163 35 43 45
0.136520 0.432735 -0.460636 251 254 255
0.132536 0.429453 -0.462605 153 138 119
0.136410 0.432709 -0.460365 224 242 254
0.136284 0.432631 -0.460166 142 161 191
0.136197 0.431992 -0.460086 234 247 248
0.086678 0.523321 -0.453433 114 56 19
0.136286 0.432675 -0.460045 255 255 255
0.135282 0.431641 -0.460522 151 146 135
0.131342 0.428933 -0.462494 214 185 161
0.135546 0.431881 -0.460340 122 134 141
0.135829 0.432156 -0.460219 196 223 244
0.131107 0.429039 -0.462309 114 100 78
0.134902 0.431350 -0.460384 236 252 255
0.135424 0.431856 -0.460065 107 123 131
0.136294 0.432850 -0.459552 168 160 147
0.135585 0.432027 -0.459901 249 251 252
0.135278 0.431734 -0.460036 186 205 214
0.135103 0.431603 -0.459989 224 229 226
0.136075 0.432625 -0.459459 254 254 255
0.130192 0.428740 -0.462250 104 69 40
0.131630 0.429358 -0.461418 78 81 64
0.127557 0.428199 -0.463431 70 26 1
15.860243 -11.188107 -0.449679 228 203 199
0.135205 0.431718 -0.459296 121 132 145
0.368340 0.244850 -0.463175 220 191 191
0.135795 0.432629 -0.458439 146 129 116
0.127352 0.428307 -0.463086 132 95 70
0.135654 0.432592 -0.458680 173 188 202
0.135433 0.432133 -0.459032 176 197 220
0.129504 0.428735 -0.461756 152 164 154
0.135761 0.432514 -0.458772 255 254 255
0.134889 0.431674 -0.458980 188 208 219
0.134996 0.431814 -0.458838 245 249 252
0.135043 0.431898 -0.458768 252 255 255
0.129801 0.428879 -0.461190 102 114 110
0.129535 0.428806 -0.461313 166 183 174
0.119707 0.431228 -0.463785 77 98 143
0.135673 0.432527 -0.458296 250 254 255
0.135225 0.432091 -0.458492 188 204 229
0.135704 0.432577 -0.458237 125 120 119
0.126162 0.426270 -0.462089 194 162 131
0.131015 0.429345 -0.460352 122 130 119
0.134833 0.431619 -0.458515 252 255 255
0.146701 0.408590 -0.450063 57 61 62
0.135545 0.432539 -0.457722 90 91 93
0.135031 0.432040 -0.457928 179 197 222
0.135479 0.432485 -0.457685 243 253 255
0.135517 0.432535 -0.457626 106 108 108
0.134746 0.431808 -0.457946 255 255 255
0.135406 0.432444 -0.457553 252 255 255
0.134331 0.431518 -0.457707 255 255 253
0.134880 0.432000 -0.457435 175 185 218
0.134880 0.432000 -0.457435 175 185 218
0.134497 0.431667 -0.457543 133 139 150
0.133802 0.431117 -0.457831 138 135 135
0.135191 0.432320 -0.457155 192 211 240
0.130795 0.429398 -0.459211 186 200 193
0.130795 0.429398 -0.459211 186 200 193
0.134568 0.431760 -0.457332 239 254 255
0.135405 0.432568 -0.456875 88 76 65
0.135405 0.432568 -0.456875 88 76 65
0.124252 0.428732 -0.462546 204 207 202
0.130757 0.429396 -0.459087 189 200 194
0.130757 0.429396 -0.459087 189 200 194
0.134343 0.431577 -0.457344 180 205 226
0.134169 0.431448 -0.457390 227 239 253
0.129116 0.428853 -0.459875 161 181 186
0.124832 0.428615 -0.462138 119 130 122
1.515486 -2.325953 0.648732 10 14 15
1.448425 -2.164792 0.639875 2 10 9
1.144356 -1.509814 0.477130 8 13 9
0.892743 -0.914475 0.339876 13 16 9
0.123978 0.428517 -0.461516 217 225 214
1.098495 -1.380012 0.490536 8 15 15
0.123601 0.428405 -0.461419 38 44 47
-0.326560 -1.680098 2.696694 228 237 244
0.734471 -0.549731 0.161769 140 146 137
0.732343 -0.743956 0.168618 95 111 111
0.725345 -0.491042 0.155723 81 98 100
0.129020 0.428691 -0.457680 59 52 42
1.549803 -2.293012 0.866583 141 137 131
0.667745 -0.314132 0.146256 23 34 23
0.669443 -0.311904 0.142085 107 117 101
0.123999 0.425588 -0.459854 100 93 87
0.126169 0.419073 -0.457759 36 52 51
0.704840 -0.432576 0.131124 102 104 101
0.124629 0.426622 -0.459381 60 73 69
0.626423 -0.243783 0.122563 128 149 149
0.104166 0.132687 0.285598 248 255 255
0.126618 0.421242 -0.456225 9 11 8
1.454941 -2.174863 0.649161 57 67 68
0.721682 -0.450990 0.192242 55 63 54
0.643119 -0.283400 0.140686 16 27 23
1.281323 -1.736278 0.711341 26 40 40
1.141234 -1.447348 0.608687 100 99 93
1.361711 -1.897486 0.788683 51 48 39
-0.266826 -0.640689 -0.334602 9 9 11
-0.805424 -2.623684 0.570551 28 39 41
-0.110545 -2.431977 0.471010 105 118 122
3.776248 5.417338 -0.106301 152 163 169
-1.342923 -14.087776 4.521544 77 93 99
0.118010 0.240638 -0.359881 45 28 12
-1.598271 -12.797239 4.637391 9 16 16
-1.803860 -13.357587 4.972962 21 17 18
0.112420 0.436957 -0.456055 70 78 81
0.129331 0.381078 -0.416251 138 123 116
-0.308615 -0.383811 -0.079302 21 19 14
-0.080413 -1.556825 0.803907 87 87 77
-0.067391 -1.526359 0.830027 114 115 107
-0.067391 -1.526359 0.830027 114 115 107
0.092574 0.340662 -0.414592 66 74 76
-0.154232 -1.181907 0.564704 143 148 142
-0.109173 -2.320907 1.466444 150 151 143
-0.084770 -1.431837 0.795568 154 155 147
-0.065850 -1.482406 0.847081 26 32 28
-0.097925 -1.372801 0.764908 105 107 96
-0.097925 -1.372801 0.764908 105 107 96
0.130554 0.408477 -0.426124 151 137 123
-0.097717 -1.365144 0.771099 153 154 145
-0.031985 -1.450454 0.987868 127 132 125
0.129882 0.404390 -0.421441 163 150 139
0.122208 0.305724 -0.344992 54 40 29
0.050840 0.300462 -0.410188 173 124 83
0.096512 0.372566 -0.426406 126 126 98
0.098370 0.371497 -0.420679 65 26 11
0.096717 0.330455 -0.380729 218 218 212
-0.010282 -0.330019 0.165161 99 99 96
-0.125689 -1.286313 0.844200 46 44 32
-0.125689 -1.286313 0.844200 46 44 32
0.099188 0.389947 -0.430339 176 173 172
0.084194 0.236451 -0.288071 201 218 229
0.072491 0.157599 -0.213196 87 95 93
0.091719 0.393238 -0.438518 81 41 22
0.092992 0.290838 -0.328267 218 237 253
0.100460 0.392285 -0.427957 142 94 111
0.100608 0.392595 -0.427653 49 6 4
0.097757 0.323341 -0.354318 167 191 203
0.098722 0.329651 -0.358683 233 252 255
0.096776 0.312604 -0.340917 120 133 136
0.099757 0.337598 -0.365435 160 182 193
0.101498 0.355801 -0.383806 135 150 153
0.099099 0.331500 -0.359221 161 181 193
-0.155954 -1.449609 0.880591 164 166 157
0.084964 0.254721 -0.333866 166 173 166
0.085410 0.257218 -0.335098 166 173 166
-0.071936 0.086345 -0.331840 211 172 142
0.065136 0.118278 -0.190476 87 92 95
0.091974 0.285747 -0.326770 218 241 253
0.091974 0.285747 -0.326770 218 241 253
0.100460 0.392285 -0.427957 142 94 111
0.097891 0.325339 -0.357183 233 250 255
0.100191 0.397234 -0.431544 54 11 6
0.101840 0.389971 -0.421208 127 78 46
0.000916 -0.628486 0.465684 62 74 86
-0.380374 -2.301412 1.164706 172 180 183
0.770400 -0.098772 0.167907 149 147 140
-0.442253 -0.022327 -0.132134 87 86 72
0.776882 -0.108094 0.158099 93 104 108
0.776882 -0.108094 0.158099 93 104 108
0.798780 -0.126885 0.165466 117 115 102
0.785724 -0.116784 0.156425 155 153 140
0.782513 -0.116651 0.148246 166 159 143
-0.407139 0.135955 -0.268203 130 117 99
0.823877 -0.155424 0.169757 156 154 139
0.818854 -0.150671 0.163849 160 158 143
0.780611 -0.120397 0.132280 98 109 111
0.739987 -0.108125 0.083016 126 120 108
0.780796 -0.130205 0.101063 160 154 147
-0.412802 0.051850 -0.299471 74 85 82
0.793982 -0.147326 0.078629 161 158 146
0.816719 -0.168378 0.087354 165 163 151
0.796865 -0.152825 0.065172 146 143 134
0.821709 -0.175333 0.081589 109 107 95
0.791685 -0.151444 0.047125 128 126 121
0.356922 0.361234 -0.458692 183 126 71
0.850363 -0.213349 0.082878 89 86 79
0.796049 -0.158231 0.025519 121 114 102
-6.297576 -58.772022 43.286469 105 40 8
0.855919 -0.223755 0.072943 164 165 151
0.854095 -0.222648 0.061946 164 162 150
0.555527 0.065345 -0.250779 22 14 12
0.557205 0.086180 -0.272826 12 10 8
0.586423 0.124609 -0.326242 165 178 184
0.610008 0.018206 -0.220006 78 67 63
0.582726 0.103629 -0.302288 53 58 62
-5.366296 -55.047028 43.883930 213 210 202
-4.861535 -46.568832 37.551868 209 200 198
0.870201 -0.253787 0.031933 79 80 71
0.707615 -0.055366 -0.180947 130 127 118
0.763545 -0.121212 -0.112325 112 107 101
0.819426 -0.183742 -0.046548 21 21 24
0.829145 -0.195681 -0.034372 36 39 46
0.759739 -0.116535 -0.118495 120 115 109
0.580455 0.216217 -0.444793 71 61 52
0.723911 -0.074613 -0.162973 147 140 130
0.848257 -0.221103 -0.010554 33 36 27
0.667614 0.064553 -0.316343 99 113 113
0.872213 -0.259380 0.012217 122 123 109
0.845864 -0.217991 -0.032401 27 33 44
0.790264 -0.138923 -0.132242 10 5 2
0.712088 0.007007 -0.285850 76 65 61
0.712088 0.007007 -0.285850 76 65 61
0.762062 -0.089737 -0.193360 123 119 110
0.686403 0.097778 -0.384556 175 184 187
0.757250 -0.058445 -0.246115 144 139 135
