ply
format ascii 1.0
element vertex 877
property float x
property float y
property float z
property uchar red
property uchar green
property uchar blue
end_header
58.989513 -2619.758789 5437.476074 95 110 87
8.122592 65.872810 92.437782 98 104 104
-0.754628 -6.687987 119.876648 165 161 160
1.240585 -7.059472 123.018982 163 162 161
42.219875 74.764481 125.417351 250 228 229
37.431179 54.063160 177.545456 237 217 210
5.352559 -7.710701 127.323112 41 41 46
-7.634688 57.173195 160.095840 214 206 217
37.682953 49.427822 178.157471 140 146 144
12.898494 64.477806 138.617752 109 119 92
78.617149 -121.921379 171.304337 31 33 30
3.556829 65.735497 94.399529 167 165 166
4.262736 65.348900 95.114342 154 159 160
8.122592 65.872810 92.437782 126 101 97
12.641241 65.623978 143.153763 155 167 134
26.551308 44.825230 172.717499 209 197 199
8.918865 60.661991 141.074692 105 106 108
-21.968029 -5.656935 91.510635 225 226 208
48.797382 52.406929 188.967239 186 175 169
41.897839 66.221588 167.668289 149 159 161
70.892586 -174.120941 258.243683 194 169 163
-318.760284 -1069.436890 2616.438232 163 162 153
84.935188 -246.416138 380.585754 200 183 188
-35.380585 44.278423 338.714813 163 159 155
1.240585 -7.059472 123.018982 53 65 45
512.906494 -2165.125488 4727.342773 164 164 166
-82.874062 -1639.796997 3550.989014 99 99 84
-534.615784 -1343.780640 2758.411865 141 144 151
101.660622 -1816.688843 3602.485840 160 159 156
2380.655273 -5806.553223 11827.186523 233 248 223
152.492355 -2184.585693 5187.442871 155 154 150
19.199135 69.557587 106.860916 187 206 176
72.769928 -1588.596191 3728.997314 148 133 120
-190.692947 -904.400391 1300.092773 169 168 170
-5.120099 -6.151958 114.254593 147 142 145
-13.243454 60.854076 88.974640 70 90 64
-102.677338 -882.540588 1264.262329 80 97 80
273.812042 -8137.064453 17340.162109 56 86 50
36.417702 51.647354 181.200745 74 91 72
83.990662 -1735.492065 4060.357666 166 164 165
172.630524 -1894.595337 4533.061523 192 197 196
-14.160565 -5.982999 100.940361 29 28 26
-29.672205 -1545.049683 3500.539795 105 106 72
15.947490 -12.188910 140.787064 147 154 153
-4.042863 -7.523016 116.707245 37 18 5
6.006817 -4.002918 50.714069 15 19 20
22.335844 -15.911956 149.419022 128 128 116
22.335844 -15.911956 149.419022 99 99 84
36.836578 55.335484 169.522781 41 44 59
170.091263 -2421.640869 5919.216797 29 32 51
30.471533 -13.689380 163.142059 203 183 174
39.382030 -15.023705 179.091324 243 219 209
-13.022170 -8.904267 101.172066 35 35 38
-16.401176 -8.274868 98.653305 181 181 182
-19.951168 -14.508869 74.098877 140 146 144
678.778198 -2453.791016 6641.876953 59 95 54
43.155151 65.730476 171.494049 164 190 152
-21.431576 -1515.687988 2604.480957 168 183 183
93.014595 -894.809509 1379.563843 54 43 41
334.705841 -1408.807983 3127.731689 174 171 161
291.180573 -2722.519287 6548.495605 14 6 2
82.449272 -256.786987 359.159332 48 67 33
75.532700 -972.854187 1552.577148 74 69 46
-20.428091 55.180809 166.278473 103 103 105
12.700011 -1929.299805 4306.091797 193 164 150
5.884570 65.839630 96.135056 71 87 47
-1.325893 -1410.179199 2398.900635 83 73 61
32.188599 -1590.383423 4168.610840 244 244 210
15.823924 -9.527636 141.512222 57 68 49
-142.234161 -818.757874 1257.499146 36 38 37
49.595715 78.812233 145.787277 200 210 215
-65.473869 35.526375 344.428040 42 36 28
-1079.854126 -2419.605957 5212.539062 191 188 201
11.215440 -13.300206 136.019684 178 187 174
-360.677521 -1074.663574 2692.544434 158 150 156
75.739296 82.844963 239.668304 168 171 163
38.878208 63.518707 163.847702 34 34 36
40.444012 54.716759 170.212555 217 204 202
6.006817 -4.002918 50.714069 176 161 158
118.592232 -1113.927368 1522.416748 138 120 120
-29.864206 54.930531 118.561584 30 23 25
46.281143 -14.971025 191.770035 89 86 79
-108.289391 -1309.533936 3033.256836 169 167 168
-9.612049 49.421535 269.293915 195 194 199
45.883194 -21.351244 187.511856 209 196 187
-3.985391 -9.811666 113.820831 103 84 85
10.986403 -9.578681 135.156754 188 171 181
-29.239368 57.362232 77.873535 92 97 117
47.452713 -16.578075 190.355957 63 83 74
-8.708568 50.006142 268.195679 82 80 59
-8.708568 50.006142 268.195679 55 48 38
-2.670575 -6.366638 117.534286 42 34 21
-82.874062 -1639.796997 3550.989014 178 180 184
-110.013275 -1552.098633 3500.851562 82 74 71
-11.717940 -5.030248 105.145020 53 45 45
50.846401 -15.826307 196.444031 75 77 58
-39.501480 -955.802673 1294.667114 147 146 140
-15.011109 -4.563578 101.519363 186 184 192
22.837603 -10.774550 153.815002 156 157 160
-80.380508 32.963348 363.920166 78 85 65
-21.882059 -7.563333 90.983658 176 180 180
-21.968029 -5.656935 91.510635 155 167 134
-75.785416 34.367199 316.297821 234 222 226
-3.201071 60.567947 123.775810 141 138 135
52.254837 76.547150 179.473572 172 154 149
-116.084442 30.386120 294.938782 60 73 30
-107.501945 34.032181 269.358215 77 69 64
-21.092140 -4.895438 93.125122 140 141 145
-4.953393 -10.643575 112.145760 196 197 183
-5.120099 -6.151958 114.254593 41 72 40
-0.858902 61.690342 142.516846 220 230 232
-8.904024 54.565243 190.362671 213 201 211
-2215.845703 -3707.857910 6417.380371 51 74 48
-13.712192 48.951752 269.619720 73 69 60
99.889587 93.277023 214.417648 174 159 154
-16.479153 -5.109987 99.141388 85 51 39
58.989513 -2619.758789 5437.476074 172 157 154
39.057785 -1375.798706 2681.919189 72 88 55
60.602421 -1378.630371 3660.178711 220 208 214
46.832088 -1416.191895 2638.093994 191 160 110
3.088630 -11.923586 122.824242 178 174 174
-85.017418 -54.909431 205.383072 199 181 167
-334.223389 -1811.037842 3949.295898 40 75 35
-9.712590 -9.692763 105.861748 162 152 148
174.622818 -2091.163086 4894.868652 198 198 201
0.751285 -1.715540 12.001518 43 33 29
540.275208 -4943.812012 12131.575195 87 87 69
81.121147 -1260.928345 1758.910400 72 100 62
-133.660706 -801.467896 1237.669312 150 156 154
358.012543 -1449.136230 3291.133789 199 201 210
6.201323 65.131325 93.075470 54 43 41
1140.221436 -5808.157227 16726.324219 177 183 191
9.812958 60.144302 139.496429 50 67 43
-13.022170 -8.904267 101.172066 56 87 52
-302.715271 -600.455627 1046.177246 164 118 91
19.782761 69.567162 108.823227 159 169 172
-15.600876 60.183308 82.845299 150 151 148
6528.698730 -15082.611328 33361.496094 198 187 194
-24.081373 58.095856 86.841003 26 26 24
5233.520020 -12245.238281 26432.355469 43 31 27
21.068266 69.444397 106.280640 77 92 72
37.802765 52.507584 186.764740 31 32 32
-34.394035 52.621990 125.789261 29 29 31
-34.394035 52.621990 125.789261 170 170 164
42.219875 74.764481 125.417351 140 115 111
-27.121145 57.156170 81.980301 68 66 80
26.403004 -11.444366 162.809265 164 165 169
778.564697 -2426.622314 4825.741211 57 52 65
-121.235229 31.417614 276.781891 176 188 173
84.561455 -245.775955 376.196472 57 50 31
-34.240658 54.236897 98.208992 203 220 221
-23.498661 56.557003 96.268814 117 119 114
-47.955013 -929.302124 1265.114502 162 192 153
-54.520061 35.723923 375.479797 41 44 59
-7.502399 49.837994 270.731750 82 99 68
-108.902412 33.838360 236.629639 75 85 77
-432.422638 -1162.092041 2590.809082 141 125 126
-140.875687 27.122765 276.806732 222 207 198
-137.117813 27.179430 283.018402 89 88 72
65.802238 81.794197 158.434204 63 86 58
65.802238 81.794197 158.434204 147 130 130
278.789215 -2379.061279 5655.085938 64 53 51
7.074935 58.887733 142.315826 17 17 19
34.779964 74.092743 129.444107 58 79 48
-25.845644 56.398422 97.303230 23 18 22
24.713539 70.982971 111.921684 170 152 134
-25.605101 57.265762 97.281319 32 31 35
-22.026810 -5.500011 90.770180 90 87 98
15.564940 49.976292 153.261383 87 79 62
-39.407787 44.253525 232.244949 49 80 39
-22.908186 -4.670587 90.350006 49 48 56
46.281143 -14.971025 191.770035 167 168 169
-15.011109 -4.563578 101.519363 60 33 21
76.358711 -188.170547 268.761963 149 152 148
-4.953393 -10.643575 112.145760 168 183 183
-465.308929 -1907.562622 4925.133789 63 55 48
-619.235229 -1086.660034 1910.610962 161 159 164
-190.299759 -603.226318 1015.286316 194 173 171
-2.732649 54.976006 140.792297 188 171 181
9.859221 68.350967 94.305290 129 128 126
114.929276 -183.993393 294.338409 201 194 181
-0.141174 -11.250221 118.080376 213 207 212
50.846401 -15.826307 196.444031 228 218 224
-8.444723 -8.357392 107.553062 175 174 172
6.007657 64.341194 124.879158 163 159 155
20.523542 45.766102 172.617325 180 165 148
-4.863962 -8.533381 112.797302 157 165 168
-21.960281 -4.634979 91.610092 109 93 93
-11.717940 -5.030248 105.145020 215 187 188
13.103067 -1315.319702 1851.543213 49 49 30
78.971275 83.348297 245.488235 87 86 77
-250.961212 -884.123474 1201.434448 161 170 170
17.510906 66.448120 136.101349 161 162 165
-43.341927 -1048.606445 2582.378174 147 145 156
-32.086998 -1018.161621 1834.768921 212 222 231
-45.210159 -966.933594 1330.564453 85 69 70
65.855522 77.122200 217.747269 87 87 66
54.918175 76.538254 182.576019 160 179 151
343.627716 -1083.556152 2297.025879 16 14 3
-23.385159 58.409786 96.169632 72 92 85
-23.385159 58.409786 96.169632 43 60 54
35.144791 43.024380 412.876709 220 215 220
-269.398041 -838.680725 1828.609131 150 148 159
12.140928 65.053909 142.617004 150 148 159
-8.692242 46.748306 289.255829 60 33 21
419.382568 -1419.758057 3101.541260 205 219 180
525.882507 -1613.077271 3547.548340 36 30 18
-475.996918 -1323.120361 3208.784424 213 194 177
-436.439941 -1260.773560 2885.013184 84 90 109
20.354986 65.642418 137.886169 204 190 192
-78.155975 -74.922035 190.316376 19 19 21
12.586813 65.611938 139.252136 54 31 21
80.281464 -371.111206 556.930176 231 206 201
515.332520 -1649.689941 3607.315430 78 62 65
-370.551941 -1078.883057 2357.297363 195 206 206
-94.218964 36.854538 232.736359 66 51 26
-5.495709 -1067.980713 1453.566040 153 156 153
-1.351959 -1402.465820 2365.418701 23 21 16
0.539628 -1648.759888 3389.948730 89 109 76
2.883850 -1071.782837 2441.053223 21 24 25
-8.838859 56.638416 160.355850 47 51 37
-5.632483 62.513641 95.624687 63 82 51
12.700011 -1929.299805 4306.091797 236 236 238
7.340150 -1464.805176 2497.488525 144 146 133
-460.032501 -1186.057495 2756.428711 176 174 175
-6.259686 62.541889 93.522896 168 178 172
60.602421 -1378.630371 3660.178711 220 208 214
3.859439 61.809120 144.429688 115 124 113
124.912445 -1991.589966 3820.519775 145 146 151
3.517587 64.191940 104.258255 162 152 148
-212.288254 -875.164307 1205.246826 139 140 135
-34.504993 46.623302 355.737579 51 79 38
-390.083282 -1357.547607 3741.193604 181 177 174
-390.083282 -1357.547607 3741.193604 240 232 240
-438.730774 -1700.320557 4127.861328 170 178 181
127.785378 98.474602 316.301666 251 222 216
292.160614 -2339.127197 5632.401367 150 156 154
163.819351 -1509.832764 2879.220703 147 152 146
133.464355 104.499252 336.654388 199 201 210
107.139290 -1244.403564 1750.664917 71 87 47
428.951385 -1830.703369 3844.512695 53 72 47
152.066803 -456.684418 846.043762 34 66 25
17.700293 49.442059 157.692932 88 94 115
327.990479 -1283.748657 2875.364502 81 100 98
27.885912 57.767906 158.874557 96 71 65
19.665375 69.340935 102.925613 226 220 228
2464.853027 -5604.284668 12545.419922 227 217 226
375.570709 -950.470032 2202.726074 239 235 246
-122.030594 29.252771 271.285828 47 70 43
16.676262 66.714577 138.312286 157 152 156
16.676262 66.714577 138.312286 166 178 168
-122.531326 30.925585 277.471741 48 72 46
-102.501495 36.842068 232.362427 111 97 97
-26.794493 57.917439 79.886978 60 39 41
-95.339073 -2615.162109 6252.445801 92 73 72
-47.955013 -929.302124 1265.114502 49 75 36
21.519562 51.998356 160.979416 74 93 65
-110.280815 34.257614 247.065598 189 177 181
-20.119295 59.982063 81.258209 34 43 39
11.337028 63.492092 138.261414 17 15 17
-10.528564 54.498295 228.807175 227 202 204
-8.674134 -1503.411865 2586.341309 166 179 167
-12.708197 61.771339 84.626068 98 104 104
-224.204361 -956.081787 1328.493530 112 117 113
54.980042 -2436.440430 5425.310059 188 156 158
16.371582 60.379902 142.889328 141 123 116
65.588089 -1906.365601 3285.617188 225 203 197
36.667545 -1157.030273 1566.301758 163 163 161
20.017830 64.391106 141.679138 189 171 153
15.599372 51.316833 146.746582 57 70 46
-354.870850 -1514.141235 3487.193604 30 29 31
-19.447275 59.757404 82.999924 99 127 89
-16.405066 59.983524 92.261116 141 150 149
34.779964 74.092743 129.444107 32 29 30
-20.332342 55.076069 163.164841 230 218 220
-30.693695 51.625153 100.236099 80 95 64
1991.711426 -5224.935547 11656.631836 77 92 69
17.228821 66.453461 137.413376 156 140 131
-16.211786 -996.039185 1378.417114 75 91 91
-19.834198 -997.731750 1404.276978 158 150 156
1166.470703 -5685.033691 14010.726562 79 83 95
-155.643204 -1392.912354 3210.886719 77 59 60
435.119995 -1571.933472 4043.580811 44 51 20
1495.816406 -4070.852783 8188.739746 88 103 99
446.753052 -1936.055298 4305.304688 71 76 79
74.061737 2.252353 264.788910 61 69 45
-295.262451 -1605.901123 3531.917480 200 216 187
-193.867813 -1866.255493 4475.493164 168 162 158
-1.196664 62.793724 126.609428 78 82 94
-24.411743 56.652946 94.234772 66 64 56
158.964645 -1531.920532 2240.793701 221 205 184
-85.020309 -107.809105 239.455032 148 146 147
-146.422546 24.394316 337.078094 138 130 134
-111.117218 -3620.191406 9655.600586 184 192 191
-120.060623 -1158.353760 2895.576660 57 33 22
87.249062 -182.709641 275.601135 162 158 155
-64.404686 -94.766296 307.158600 163 163 163
-23.862814 57.446903 92.757874 163 163 163
-390.223511 -1003.697510 1861.110962 33 46 29
-5.377944 61.430351 131.650986 206 212 183
263.598602 -1541.481934 3488.500244 23 18 24
-224.320892 -748.127014 1067.477905 35 39 35
-6.558899 57.186554 164.411728 70 87 58
720.303162 -2133.601318 4623.142578 237 231 217
20.678131 47.132488 160.380341 26 29 33
-252.698639 -772.161560 1199.894531 147 152 157
-5661.632324 -178819.062500 395293.812500 147 152 157
-88.423569 -2742.403564 6131.133789 155 150 154
-404.915222 -779.707397 1590.081055 102 78 81
50.027802 77.600380 159.831284 86 95 68
-247.628632 -542.649536 976.844788 64 60 49
-91.739250 -121.801735 251.654816 157 159 158
38.878208 63.518707 163.847702 183 157 156
-36.185928 -715.280579 965.134949 52 64 42
-36.185928 -715.280579 965.134949 56 45 43
-81.910019 -74.538475 191.251709 217 204 202
-504.313538 -1095.090332 2375.152588 193 193 202
-458.651154 -1072.477539 2156.107666 90 96 109
-96.582886 -145.486389 262.402496 90 96 109
74.085701 -310.328278 483.965271 22 17 17
-268.894135 -836.726807 1258.982178 179 178 184
-106.756882 -2286.773438 6038.841797 165 170 171
178.248199 -976.790833 2224.111572 121 104 94
178.248199 -976.790833 2224.111572 169 172 177
135.929214 -1255.288940 1704.665771 77 50 49
46.499359 52.013027 191.237305 195 194 199
-64.319855 -110.448387 256.803223 29 28 26
-5.546019 60.190197 156.451675 33 36 45
-5.546019 60.190197 156.451675 165 163 164
-212.465927 3.945415 500.740662 249 239 240
-252.553436 -852.970947 1172.459717 51 71 41
-252.553436 -852.970947 1172.459717 51 71 41
313.273865 -2123.636963 3872.775391 150 140 131
-150.455841 17.250261 402.611816 138 133 133
-286.310944 -944.409912 2028.126343 138 133 133
-150.455841 17.250261 402.611816 142 141 148
-14989.897461 -30446.423828 50739.054688 175 174 178
-216.750717 -950.657043 1523.330566 65 68 77
40.170559 64.854919 162.575912 206 200 207
-85.764694 -80.772583 204.436798 162 158 160
-15.899074 57.823021 111.430817 37 18 5
-70.447273 45.650864 187.429565 40 34 42
-5.128080 58.403530 154.116394 152 124 116
-78.547920 43.761051 147.320923 243 230 228
65.855522 77.122200 217.747269 106 99 95
-482.814270 -994.073120 1961.539307 82 80 59
-76.239296 -1440.098877 3470.796387 60 89 44
-2.947516 62.132046 131.358231 87 70 63
-79.671051 44.104614 150.411606 168 160 158
17.931049 68.375572 134.192612 168 160 158
-84.240303 -100.273102 221.074783 34 26 24
-388.722778 -1014.060242 1596.024048 42 34 21
55.425602 52.625385 215.679138 42 68 30
-329.138611 -5187.580566 14418.343750 60 66 51
-386.830444 -813.115784 1769.364380 61 83 51
343.627716 -1083.556152 2297.025879 223 214 219
-22.979544 56.963970 94.593231 193 179 166
-3.090874 63.394753 98.338409 25 22 21
-103.333107 -143.728485 268.792297 178 180 184
-188.111267 -939.592041 1281.993530 191 187 167
-188.111267 -939.592041 1281.993530 149 153 156
-132.462814 -2068.128418 5602.699707 157 150 153
-124.764244 28.221962 299.261353 62 78 50
-124.764244 28.221962 299.261353 157 150 153
-162.942444 15.569757 423.045837 149 153 156
-90.319939 -1279.697876 2987.623291 192 186 196
-3.346608 54.134357 140.004913 174 156 141
-38.684040 -907.484314 1298.776978 156 157 159
-507.005524 -1164.810547 2307.182373 186 184 192
42.288383 73.236526 162.394867 138 142 154
-475.996918 -1323.120361 3208.784424 217 208 213
-80.828094 -1186.690918 2836.026123 186 184 185
-80.828094 -1186.690918 2836.026123 217 208 213
73.122131 79.263809 281.512756 68 58 49
-112.576965 31.883358 289.496490 22 15 12
-83.007935 -1180.315552 2962.548340 33 33 36
-112.576965 31.883358 289.496490 212 204 205
-396.107117 -825.359924 1786.948364 49 65 38
-61.284367 -1409.981934 2463.103271 120 121 118
-61.284367 -1409.981934 2463.103271 120 121 118
-557.702209 -1191.123291 2330.231201 184 175 178
-297.307404 -969.307617 1336.341064 186 188 182
-1873.136475 -32144.330078 74408.820312 199 181 167
-243.480896 -803.113770 1094.794922 130 127 124
21.421608 67.994858 144.829727 148 149 150
-547.613159 -1254.521606 2464.737549 161 166 162
-92.133148 -56.678604 178.395187 161 166 162
-128.733765 27.065853 312.119476 83 82 88
-128.733765 27.065853 312.119476 84 90 109
-295.251526 -860.241699 1326.127563 62 56 46
419.880249 -1392.962158 3069.938721 93 82 60
-253.286880 -798.044617 1135.734131 172 188 178
-367.353760 -759.290222 1545.306274 204 182 185
-146.744781 26.092369 286.285248 212 191 200
83.820518 -113.020226 157.058701 78 84 66
-575.673035 -1237.817993 2431.473389 74 92 75
-261.191071 -850.096436 1165.901001 54 31 21
-276.283386 -755.955627 1230.835938 59 84 52
59.624809 62.373161 222.156204 169 147 150
-80.103592 36.628529 341.243439 36 36 39
-16.452225 59.265793 105.964600 164 190 154
-100.079544 -94.852982 195.915848 75 56 58
-124.595879 28.828302 304.949036 38 33 35
82.066261 -116.979988 159.800888 228 210 203
-289.119324 -801.458374 1235.793701 194 216 203
-123.853951 32.195774 243.108429 63 32 19
-306.968964 -815.488525 1364.471680 221 202 188
49.044899 62.332912 180.241333 74 100 63
-73.178429 34.625931 314.427185 76 58 66
-107.501945 34.032181 269.358215 74 100 63
-367.126068 -1197.435913 1622.700928 60 59 56
-18.794180 60.235832 81.317230 176 186 176
-92.705490 -52.257053 182.838974 208 195 175
-92.705490 -52.257053 182.838974 82 96 68
28.382128 70.847557 103.785240 229 207 194
419.501251 -1384.633667 2981.457031 149 154 155
-363.440918 -866.692688 1582.100220 56 47 46
73.305664 -184.367630 267.762909 234 216 206
-92.273422 -71.071907 182.402573 189 198 199
70.892586 -174.120941 258.243683 107 91 88
3580.562744 -17889.414062 37682.082031 230 215 199
3580.562744 -17889.414062 37682.082031 230 215 199
-881.446899 -1980.235474 3886.110107 78 52 56
13.594379 65.207359 142.394287 198 180 174
-4.141077 63.439453 90.510567 189 199 197
288.207001 -1806.523193 3002.907959 198 209 202
-134.188339 -1684.639038 2897.674316 198 209 202
-8.395802 -866.323914 2019.069702 153 156 153
-8.220852 -1134.669556 2795.671143 170 156 155
-147.318527 -1341.383911 3015.813232 170 156 155
-6.332615 60.925259 129.560898 143 152 150
-6.332615 60.925259 129.560898 226 213 219
-195.629562 -1494.174316 3963.867188 226 213 219
-10.219802 -2896.617432 6428.973145 213 207 212
79.951210 -122.902908 170.269867 70 92 67
-0.009079 61.133453 135.097031 115 116 120
-90.983994 -72.371643 182.157440 208 231 204
-161.277191 20.506691 322.941498 23 23 20
0.333812 -1697.406860 4485.829102 53 53 53
-0.190170 -1317.867065 2403.021484 189 189 197
-132.393967 -929.735291 2443.084717 196 193 192
-158.432648 21.764784 317.695007 117 119 116
-158.432648 21.764784 317.695007 141 146 142
-166.810577 -1308.230103 2965.001465 230 204 197
3.940189 -1329.815674 3106.307861 179 180 175
78.617149 -121.921379 171.304337 154 153 153
-96.908356 -86.160919 195.304459 152 148 154
-9.097626 57.871655 150.113785 85 51 39
0.654814 62.544430 131.193298 183 206 177
0.654814 62.544430 131.193298 151 151 146
0.524855 64.512497 96.287491 72 80 57
-460.032501 -1186.057495 2756.428711 189 188 186
1.031024 62.960491 129.670074 141 146 139
-16.209713 59.903934 96.248909 168 178 172
-199.393448 -856.019714 1178.988525 74 98 72
-6.259686 62.541889 93.522896 174 179 169
-6.259686 62.541889 93.522896 174 179 169
-76.019432 -807.140930 1117.818237 176 165 165
-76.019432 -807.140930 1117.818237 217 207 211
-179.593018 -1592.723022 2644.087402 50 76 38
678.778198 -2453.791016 6641.876953 95 110 87
-10.966369 56.102993 158.915878 172 157 154
49.192440 -1634.275391 3930.100098 161 164 154
55.768230 -1607.418701 4152.824219 93 107 84
51.503078 -1535.449219 3329.880371 56 86 50
-87.625145 -52.404629 178.255386 179 182 187
76.108627 83.212318 174.983444 56 86 50
1.946885 64.414833 104.013214 191 160 110
30.711506 -1154.879517 1571.136963 166 164 165
-231.610870 -1302.595947 2925.197754 175 174 172
2.275835 64.859344 98.745209 185 212 177
-199.734161 -836.315308 1144.260742 60 86 55
-96.000351 -753.328857 1144.821777 46 57 53
-175.179657 -1525.317261 2073.095703 127 127 126
-533.026306 -2810.920166 6322.763184 46 74 36
-533.026306 -2810.920166 6322.763184 188 187 186
-334.223389 -1811.037842 3949.295898 188 187 186
-98.712868 -767.273621 1144.447754 71 74 89
-403.466736 -2095.134033 4651.496094 153 153 141
324.412201 -2037.745117 3108.023926 171 157 153
-335.460022 -1066.362061 1919.215332 55 73 37
-335.460022 -1066.362061 1919.215332 181 187 185
5.996799 60.102791 194.404739 65 91 43
150.199188 -2007.392334 4577.688477 164 165 169
-226.088257 -776.836609 1289.914062 44 33 33
-8.202491 62.180283 91.343895 54 38 33
-436.398438 -2000.533936 4747.917480 162 166 167
-436.398438 -2000.533936 4747.917480 19 19 22
-465.308929 -1907.562622 4925.133789 25 25 35
13.612492 66.386185 130.031754 63 55 48
190.614899 -1956.096558 4918.080078 67 68 49
-373.421448 -1609.267334 3882.176025 143 144 142
5.657777 61.157707 140.787857 39 35 34
65.382721 -1003.548462 1631.181030 47 73 44
91.891655 -1415.434448 2275.664307 49 75 45
91.891655 -1415.434448 2275.664307 162 151 149
540.275208 -4943.812012 12131.575195 43 33 29
-271.920044 -900.301147 1532.395874 163 164 168
139.046249 -1243.394897 3070.761475 159 160 155
-271.920044 -900.301147 1532.395874 159 160 155
134.983826 -1573.766602 2780.334961 171 182 163
75.532700 -972.854187 1552.577148 22 25 30
-117.636444 -748.734314 1109.889771 170 178 181
-109.338318 -672.456665 1020.919373 219 208 215
-15.674857 56.334488 145.850784 167 157 156
77.111015 -953.470520 1532.452881 62 62 60
-195.725388 -762.173584 1091.092529 62 62 60
127.785378 98.474602 316.301666 173 172 170
292.160614 -2339.127197 5632.401367 174 164 149
5.294699 65.381844 102.290932 174 171 161
641.341736 -4639.958008 12318.626953 61 80 51
84.897148 -1050.372192 1608.446411 41 37 35
84.897148 -1050.372192 1608.446411 156 157 162
133.222244 -1400.995728 2497.361816 156 157 162
133.222244 -1400.995728 2497.361816 184 181 184
-120.110992 -708.507385 1078.407593 126 128 127
-115.091507 33.404148 242.062668 62 87 53
-310.254913 -963.825745 1725.200806 44 47 52
-13.482491 59.520260 119.790901 156 158 155
-13.482491 59.520260 119.790901 198 185 197
267.900269 -1987.162109 4838.755371 73 64 44
5.230139 66.028221 92.981743 73 64 44
5.230139 66.028221 92.981743 164 164 166
358.012543 -1449.136230 3291.133789 21 20 22
-113.249771 33.948753 238.535629 77 102 73
-37.662151 41.578476 327.100952 129 129 129
8.293218 63.988403 142.688538 150 150 148
8.293218 63.988403 142.688538 150 150 148
8.293218 63.988403 142.688538 201 194 184
-179.157990 -939.080933 1519.238037 226 219 220
-315.679260 -987.384521 1740.270508 206 201 168
-377.341064 -1354.685669 3200.555420 210 184 183
6.171968 66.069038 100.239037 33 33 33
6.171968 66.069038 100.239037 94 97 66
74.989609 -799.165222 1220.009155 94 97 66
-184.654388 -973.137817 1521.515015 174 170 171
83.698669 -988.641113 1328.089478 164 164 164
83.698669 -988.641113 1328.089478 108 96 69
6.030530 66.347351 92.793282 215 218 196
6.295143 65.363426 96.555084 164 164 164
-11.291468 60.690140 91.632072 103 83 69
9.127651 65.347809 137.592453 54 43 41
-11.139638 61.510872 88.970268 210 198 203
96.405502 -924.401611 1386.069214 176 180 179
7.885715 66.250740 112.566711 177 159 157
335.014923 -2038.331421 4758.630859 160 139 116
-140.386902 25.005133 299.600586 56 87 52
1039.200073 -2597.054932 5849.812012 136 137 143
94.226517 -334.009430 531.382629 202 203 208
-495.871887 -939.382019 1734.340698 202 203 208
-221.611343 -870.722961 1205.622681 59 64 45
-423.476105 -1261.335205 2308.477051 56 57 34
-2470.167969 -5242.889160 8557.633789 48 74 44
-54.538914 -88.429413 293.964966 244 214 211
-423.026489 -876.267212 1478.600220 211 210 210
-269.167969 -537.994568 926.869446 44 74 39
-2744.346924 -6617.525391 9411.546875 176 177 172
-2612.969727 -6455.897949 8938.900391 97 68 59
74.562881 -303.220367 425.764252 167 157 158
-21.929461 -14.914668 74.806274 204 178 177
-190.299759 -603.226318 1015.286316 61 47 55
-307.771759 -1065.004517 1637.631226 228 217 228
-124.124100 31.016558 269.007477 215 201 207
6511.245605 -15709.720703 35025.070312 207 195 197
103.711769 -345.175537 555.389343 55 47 42
27.885912 57.767906 158.874557 225 219 233
-319.561127 -638.896973 1131.033081 243 225 227
1405.008301 -4621.176270 12273.016602 182 176 170
-21.703814 56.530586 114.772919 141 138 131
-311.499878 -903.163025 1631.916260 227 219 231
-244.215530 -522.672668 809.236023 194 207 200
-244.215530 -522.672668 809.236023 215 193 191
3167.188232 -7387.929688 16438.789062 195 181 180
-20.532892 -13.792803 73.890877 55 44 52
-250.064590 -881.688049 1297.892578 198 187 194
-80.187012 -77.833763 263.726410 58 47 55
54.005230 68.090881 274.704651 70 89 62
-276.337860 -834.453491 1430.177246 229 206 193
75.093010 -251.348801 383.312531 227 217 226
-24.081373 58.095856 86.841003 180 167 158
-342.059204 -996.943909 1764.221558 91 94 110
260.995850 -363.085663 733.548584 219 207 214
94.635422 -304.013245 481.820312 219 207 214
-87.340477 -71.653877 192.607880 57 48 43
949.332886 -2530.660156 5563.328125 213 210 200
-1013.455811 -2472.013428 5209.051758 220 214 218
-138.142075 25.743507 305.168213 220 214 218
-62.173218 -96.986946 317.865387 38 31 33
130.831665 61.359322 652.542358 205 194 185
375.570709 -950.470032 2202.726074 34 38 34
130.758713 63.382187 648.698730 144 138 132
20.523542 45.766102 172.617325 154 165 167
-95.149460 -93.491554 211.266830 121 138 114
750.919128 -1956.072754 4417.571289 47 70 43
750.919128 -1956.072754 4417.571289 202 181 178
711.880676 -2544.472412 5919.130859 161 142 144
-405.353973 -1030.167358 2048.237793 32 40 43
87.189575 -186.810394 255.984955 111 112 102
178.635895 -466.147034 868.383484 248 234 226
178.635895 -466.147034 868.383484 133 136 141
-3253.047852 -7615.094727 11893.756836 165 148 153
237.078506 -921.552368 1962.793457 90 65 61
17.624203 -11.122517 144.513336 75 86 82
-120.130287 -146.125671 269.276367 170 170 164
81.807175 87.276909 242.119461 140 115 111
84.313957 -183.446960 251.946732 226 236 235
84.313957 -183.446960 251.946732 236 203 169
17.525249 61.621357 142.183502 162 162 170
-70.681587 -86.423180 216.526062 52 48 41
70.932755 -308.721252 436.209351 34 13 14
70.932755 -308.721252 436.209351 193 197 200
-139.824966 26.484083 315.095551 78 79 64
388.001740 -1385.289062 3140.302002 146 153 145
-364.023193 -917.346252 1804.358276 78 79 64
80.608337 -247.631546 375.837860 146 153 145
-63.779549 -101.462593 239.967224 48 72 46
459.033752 -1647.175659 3683.785400 83 87 108
-82.849709 -79.361221 187.794296 72 74 60
88.912819 -198.896088 271.808197 60 79 49
-26.794493 57.917439 79.886978 60 39 41
3359.829102 -10495.131836 20780.417969 243 219 209
-65.023911 -108.378670 246.100128 199 202 209
-31.821411 54.781075 120.690956 224 222 236
-116.564926 -143.248917 265.384583 255 243 243
130.198410 -318.876831 588.515747 44 65 47
-80.334267 -70.861206 183.082367 195 216 219
-69.273674 -79.059540 263.919342 176 188 173
-88.975456 -116.244392 257.070618 73 50 42
84.935188 -246.416138 380.585754 14 14 16
-234.601135 -765.509460 1137.535645 89 82 104
-82.723526 42.033489 189.115631 205 211 207
83.063873 -178.024139 258.385559 71 98 69
86.270874 83.472290 266.800598 212 207 214
-53.205521 -898.795227 1228.495728 167 167 169
-22.300037 56.080276 146.466751 187 208 224
44.442860 74.907471 172.831177 145 143 144
-25.887403 58.072163 79.014351 216 196 186
-72.694839 45.125870 189.677917 231 243 250
41.646484 75.656403 124.886192 147 145 146
663.086304 -2641.703613 6070.269043 82 86 103
87.044304 82.757111 268.416718 64 78 59
-95.253807 39.180092 211.293350 82 86 103
-346.932465 -1193.066528 2599.187256 82 78 75
-346.932465 -1193.066528 2599.187256 73 69 57
-18.955904 -1090.901733 1480.662720 157 159 146
-20.002396 57.853024 96.924789 80 86 75
-374.869995 -1198.007690 2806.124512 174 190 189
-21.551371 57.192120 98.624565 249 252 235
40.893620 74.725754 126.906731 54 75 63
24.844082 68.714203 151.550140 166 169 174
-282.525818 -745.943970 1154.158691 166 169 174
24.540310 66.682251 153.406631 93 73 74
-69.354408 -79.227303 258.179169 57 87 53
-353.142059 -1152.475586 2612.129395 144 152 147
-413.245514 -1024.572876 2064.447021 164 164 172
-15.245623 59.466274 112.118790 105 86 85
-1.885744 -10.261525 118.748482 148 150 149
-21.586859 58.454376 83.733589 26 30 42
-12.114493 61.577942 88.329330 171 195 161
-94.071892 -53.152042 201.727386 171 195 161
39.428410 63.562916 156.647278 135 114 113
-20.830393 57.265697 99.043716 79 94 75
-28.785639 56.950249 80.204903 45 47 44
-186.891327 -598.594482 860.753235 218 200 198
-471.519775 -1360.638306 3424.351318 193 208 186
44.490349 73.349655 177.958527 34 43 39
17.319775 68.200935 134.145706 77 87 76
34.884220 75.335289 147.937729 170 162 165
80.929863 -264.198730 395.804901 17 15 17
19.038036 49.156254 158.401001 196 209 192
11.223987 65.763016 138.635712 224 210 200
11.223987 65.763016 138.635712 60 61 38
11.712113 54.319214 142.766174 186 186 182
-83.264557 43.673946 155.691284 61 51 46
-13.607202 60.853954 95.224556 29 29 32
-630.294861 -1931.132080 4387.681152 37 46 43
187.091125 -1340.418457 2282.004150 169 162 166
5.219210 1.989197 24.342585 235 241 235
-306.134369 -792.910461 1210.571167 67 67 78
-66.477486 -80.601402 263.566010 106 105 95
42.561508 57.249386 178.516708 239 219 217
15.259096 67.286095 125.701271 65 83 55
-290.882172 -1048.020386 1551.637329 212 206 184
-119.713974 -1540.561890 3751.886475 183 188 171
96.693382 -269.369995 395.800201 183 201 177
12.345367 68.083153 108.795311 95 94 91
-409.101776 -1357.637817 1915.594849 82 57 55
99.036240 -304.667450 480.717041 101 98 90
45.155163 55.333778 185.168762 48 37 38
-0.568680 64.198517 96.324059 68 78 61
-0.568680 64.198517 96.324059 72 70 52
-10.528564 54.498295 228.807175 188 208 176
13.961621 56.377441 143.737564 125 100 95
-108.902412 33.838360 236.629639 82 99 68
30.471533 -13.689380 163.142059 178 197 172
-12.708197 61.771339 84.626068 141 152 128
-5.475094 62.484814 99.126396 26 27 31
-21.937328 56.351089 146.097809 70 93 65
-9.287581 56.274509 161.657074 28 25 26
-90.594910 -1364.055664 3483.736572 157 154 149
12.961691 53.040321 144.865860 60 49 50
562.823242 -2178.533447 4928.710938 211 200 180
12.961691 53.040321 144.865860 178 159 159
0.687880 61.798290 125.586357 61 65 50
-5.621027 63.530235 89.106064 231 206 207
-152.297928 -1045.035156 2410.494629 62 45 51
-427.562469 -1204.307373 2799.993408 58 71 51
-219.159225 -947.347656 1294.196777 26 27 26
-87.740837 42.299019 177.800995 127 132 136
-91.476501 -57.043808 178.641891 244 235 236
-1015.152588 -2792.789795 5982.654297 61 80 45
-1015.152588 -2792.789795 5982.654297 61 80 45
19.469652 -960.461487 1745.433960 209 190 186
-15.461997 59.403610 100.074585 209 190 186
-15.461997 59.403610 100.074585 162 192 156
52.518330 -1581.799072 4286.965332 187 218 171
52.518330 -1581.799072 4286.965332 55 50 38
1.370820 64.752129 97.303719 206 178 175
16.371582 60.379902 142.889328 219 199 190
250.877014 -1956.824219 2758.998291 211 200 197
407.454193 169.656830 790.599304 115 117 104
-14.390679 62.059784 83.376404 222 207 198
-41.435883 45.178959 265.997528 83 86 103
91.347382 -2361.318604 4720.169922 99 117 91
-15.333338 61.460190 88.699181 99 117 91
-111.527679 -964.397156 1479.967407 69 91 66
57.585709 77.603294 115.050270 17 19 16
-96.029343 -97.800423 196.199600 83 86 103
11.045431 66.874329 117.487892 88 77 71
140.997589 -3422.482178 5862.366699 219 199 190
-128.765839 30.695604 254.701172 17 10 10
-7.037000 61.751118 87.894798 88 77 71
-18.221071 57.772434 104.789886 227 208 206
-25.345243 55.054070 145.479385 34 32 24
11.266600 66.176865 119.112732 27 32 39
-12.128503 58.193306 143.938324 42 42 50
93.013733 -334.164551 538.174561 38 22 27
116.944443 -1746.155273 4091.314453 186 205 190
-122.171402 31.353371 251.287445 190 161 165
-91.577248 -706.350281 1062.208984 190 161 165
-84.341286 -56.016506 208.553757 148 149 153
6.208569 59.283535 193.966705 89 88 72
-255.487869 -666.236755 1119.075684 120 112 110
47.230644 75.222298 168.363556 120 112 110
376.768768 -1239.132568 2688.660156 69 98 69
206.992859 -2531.506104 6306.886719 84 83 76
4.281487 63.724743 126.279144 30 27 38
3.570619 67.428665 106.769859 123 100 99
-85.365623 -58.994503 213.073730 77 93 56
3.556261 65.085327 104.521469 64 87 36
-539.784241 -2499.174072 5800.273926 88 89 81
182.352493 -2175.861572 4940.110840 72 82 60
-8.939661 62.127834 93.145943 168 187 160
2102.515625 -3668.948730 7706.998047 139 142 146
2102.515625 -3668.948730 7706.998047 69 92 66
19.802473 66.319626 139.207336 66 96 58
63.493237 -1089.657837 1527.507080 13 17 20
-94.743233 39.669304 196.997101 213 193 187
-170.457855 -1213.792236 1703.337524 134 137 154
95.036438 -1370.628906 2187.678955 72 88 66
6.545595 51.236511 144.028946 59 89 55
-359.772919 -1455.231445 3451.395020 192 211 181
-386.346039 -1386.697754 3668.296875 235 218 197
282.491882 136.873016 691.976746 36 35 31
-14.836598 61.611244 83.165146 199 186 168
4.665404 66.560638 93.178322 158 161 159
7.239310 64.539574 141.569962 88 91 84
-164.747101 15.901871 416.491821 211 182 174
400.072479 -2989.661133 7429.433594 218 209 199
400.072479 -2989.661133 7429.433594 101 81 76
-142.234161 -818.757874 1257.499146 34 55 24
99.567703 -1252.613159 1742.801025 77 105 71
-11.721197 61.050743 100.184082 66 80 54
-21.362970 57.199509 95.146393 165 178 169
8.453686 61.078274 142.236740 47 80 44
481.225189 -3474.155273 8081.258789 18 37 7
-19.526537 54.620922 163.311447 64 67 53
-1470.476074 -4513.759766 12231.522461 73 98 68
72.078941 -174.142166 252.076843 105 106 108
73.098488 43.106636 253.534164 66 95 53
464.078003 -3185.308594 7316.245605 44 65 30
464.078003 -3185.308594 7316.245605 66 95 53
-22.492014 59.277454 81.137711 83 95 68
6.848967 65.715065 104.250580 35 35 46
-55.282082 -105.436287 302.008240 31 34 39
1340.220093 -7131.121094 19733.876953 171 168 169
-55.282082 -105.436287 302.008240 74 88 67
-396.010803 -1039.124390 2163.935791 130 108 111
663.086304 -2641.703613 6070.269043 64 59 57
-276.304016 -527.143066 903.498291 140 140 136
27.061350 71.387650 123.537140 240 217 211
40.893620 74.725754 126.906731 53 77 40
-344.764160 -818.606628 1555.266846 66 72 45
34.145020 71.274834 155.717270 172 144 133
48.777870 76.544182 148.207932 28 28 28
-64.468307 -108.727547 268.007965 28 28 28
20.801180 64.406929 140.207428 60 62 57
-271.618286 -720.700012 1127.765137 53 80 47
-30.990343 53.693691 140.880707 60 62 57
-62.542339 -110.907349 305.538544 113 96 93
-78.543083 -52.851887 203.265091 84 99 80
-25.605101 57.265762 97.281319 237 223 223
-136.293930 27.201468 310.562347 47 43 60
-20.667044 58.456696 100.861115 90 87 98
1108.158203 -3638.828369 9363.139648 68 74 56
17.228821 66.453461 137.413376 36 34 33
-24.803261 57.249908 94.314911 233 222 223
26.688566 72.150360 120.021095 36 42 28
-24.803261 57.249908 94.314911 209 192 190
32.622383 70.896477 153.143692 156 140 131
-109.834473 35.056217 247.609360 141 125 111
34.107281 73.070053 139.893387 80 82 77
544.137024 -3384.779785 7698.650391 58 85 50
-11.436004 62.179241 87.712013 187 208 224
-409.250427 -1658.355347 3998.504883 76 81 51
-68.062195 47.873043 162.316879 16 15 14
-4.815032 57.861240 154.279190 33 20 27
15.957768 66.249405 137.162430 45 47 44
81.121033 -249.271164 355.057770 213 208 212
-59.857887 -103.613213 298.678619 190 176 171
-15.471808 58.256992 114.603752 90 96 84
-96.830208 39.597298 188.805954 87 109 81
-96.830208 39.597298 188.805954 224 210 200
126.747429 -1939.051636 3519.216309 54 51 46
-230.524658 -840.174255 1205.699341 19 18 19
766.046570 -3499.708984 8077.562988 60 87 57
-141.844772 23.159567 333.792603 69 95 59
-141.844772 23.159567 333.792603 170 184 178
-305.840149 -949.296814 1978.483032 44 36 49
-64.668854 -110.249603 303.053101 152 184 135
-98.333725 -896.893311 1385.882935 69 58 47
285.309448 -1456.460571 3091.827881 78 93 64
111.464325 -2281.313477 3780.396240 178 183 181
-89.973427 -72.940292 181.005707 99 95 89
-688.068359 -1371.306641 2900.081543 99 95 89
-57.416031 49.277714 120.712822 231 209 198
-57.416031 49.277714 120.712822 93 99 116
2011.805908 -4010.681641 9029.750000 86 95 76
70.758293 78.804924 225.007294 106 105 101
-120.183464 -761.258728 1121.733398 201 194 181
-380.649109 -1360.192383 3625.349854 208 201 189
7.212231 63.639103 143.803772 46 74 45
69.757050 -309.678772 497.226532 208 201 189
69.757050 -309.678772 497.226532 155 185 151
16.013372 65.471939 136.710495 77 80 53
1305.348999 -7820.474609 17233.535156 64 94 58
-397.548492 -1123.211914 2765.095215 159 163 166
15.564940 49.976292 153.261383 44 45 40
-23.206499 57.660126 90.955910 200 218 188
-239.182510 -612.325745 1298.887451 188 176 164
-64.962639 35.940994 352.240936 37 43 41
18.605743 63.070175 142.905441 42 54 30
-128.635635 29.736614 261.613403 39 45 43
-128.635635 29.736614 261.613403 184 184 176
1727.318359 -2761.921387 5748.030762 184 184 176
8.771276 67.039711 104.311813 48 48 48
-716.853333 -2344.949463 6028.513672 183 173 181
-57.862247 48.477898 121.363129 127 129 124
-55.591084 -748.258057 1008.261658 119 93 82
-105.330688 36.835133 211.410431 119 93 82
81.681366 -278.124084 414.086395 84 68 68
-5.220079 62.477425 95.144722 89 109 76
-373.421448 -1609.267334 3882.176025 167 165 166
-266.536285 -492.144318 849.752502 138 140 135
-298.490143 -588.664795 1050.081909 232 217 220
-619.235229 -1086.660034 1910.610962 82 56 54
-21.991365 -2169.434082 4934.210938 60 46 33
-247.071747 -883.478271 1209.925415 53 80 47
-250.961212 -884.123474 1201.434448 155 155 155
4.589930 61.387779 139.166016 44 33 33
-332.252899 -1048.218018 1905.336304 142 148 148
-3718.609863 -9560.928711 13067.021484 88 94 115
-190.454025 -969.758545 1394.093750 210 204 212
-72.694839 45.125870 189.677917 74 91 72
3.544591 62.015156 138.640182 163 163 160
0.000000 0.000000 0.000000 255 0 0
-3.091058 -0.489472 -3.899459 255 0 0
