ply
format ascii 1.0
element vertex 1208
property float x
property float y
property float z
property uchar red
property uchar green
property uchar blue
end_header
0.341617 0.197217 0.884542 143 149 156
0.284693 0.575122 1.076011 62 73 69
0.348530 0.181992 0.896336 104 65 36
0.348153 0.194693 0.907192 165 157 172
0.365741 0.105322 0.882454 170 109 50
0.305703 0.553588 0.973013 63 84 79
0.368627 0.255161 1.032149 84 26 0
0.389104 0.136608 0.985253 194 187 173
0.453528 -0.033813 1.039532 174 112 65
0.393948 0.351967 1.140714 58 36 22
0.445281 0.194917 1.198461 66 30 18
0.436472 0.294264 1.259848 145 102 65
0.436472 0.294264 1.259848 145 102 65
0.500978 0.524587 1.521077 98 51 20
0.462517 0.886060 1.465244 82 83 88
0.477078 0.772127 1.460983 208 220 220
-0.529683 -0.019344 0.105398 207 221 226
0.664561 0.040662 1.529028 65 62 67
0.759093 0.745222 2.143668 65 58 64
0.740755 -0.049741 1.639461 105 60 33
0.744265 1.023687 2.144318 246 252 245
0.748450 0.181703 1.785937 59 76 83
0.627967 0.964950 1.951875 238 240 233
0.809975 -0.049986 1.782989 135 68 41
0.824692 -0.107234 1.784907 146 141 135
0.824692 -0.107234 1.784907 146 141 135
0.825558 -0.049029 1.815400 100 52 26
-0.247199 -0.295010 -0.133234 88 95 103
0.893232 1.354559 2.562281 79 84 90
0.893232 1.354559 2.562281 79 84 90
0.860619 -0.062999 1.871578 210 190 141
0.881805 0.300629 2.116909 109 119 118
0.907523 0.395457 2.226346 92 52 25
0.913197 0.281415 2.170683 186 180 178
0.939850 -0.273357 1.930282 187 166 150
1.002365 0.277188 2.357930 69 94 120
-0.286840 -0.262766 -0.086383 68 75 79
1.135803 0.789681 2.906394 230 235 231
0.205195 -0.128137 0.177532 164 148 133
1.171725 0.747093 2.938169 13 14 20
1.271460 0.908439 3.226061 131 117 108
1.246521 0.744005 3.083604 254 249 238
1.353971 0.917526 3.389923 126 122 119
1.198068 0.142183 2.676345 247 246 246
1.463516 1.048757 3.662378 186 167 155
1.461163 0.862403 3.575553 212 206 211
1.261537 0.147772 2.807780 120 103 117
2.043020 2.253515 5.156370 105 111 123
2.248800 2.327569 5.567523 150 157 177
-1.369609 -1.110035 0.892754 168 5 6
0.274667 1.055108 1.266493 24 23 19
-3.409695 -1.755231 1.477762 88 34 2
-4.539825 -2.169616 1.730172 154 150 133
-41.603760 -29.728148 6.641238 161 177 176
-34.796310 -26.087584 5.096105 10 14 13
-41.006134 -25.419256 3.887284 176 187 182
-46.893776 -30.760015 3.574091 207 228 226
-50.264416 -19.339897 4.659009 129 80 33
-42.456871 -15.382172 3.972204 30 31 36
-62.731342 -30.052719 3.176797 217 199 173
-140.552689 -17.360777 19.959082 145 128 105
-153.152985 -75.926933 2.964350 146 86 24
-81.254501 -35.082897 2.809338 217 214 214
-905.803467 -445.280151 2.874701 132 70 9
1.644466 1.053614 4.005258 153 143 137
-10.256212 -3.497241 1.632056 225 200 214
-4.035357 -1.835146 1.399435 129 142 151
-4.035357 -1.835146 1.399435 129 142 151
-16.275951 -0.620264 2.470576 121 99 76
-16.275951 -0.620264 2.470576 121 99 76
-1.496427 -0.286748 0.589819 165 149 115
-5.087642 -2.075381 1.426420 220 226 231
-4.057795 -1.831059 1.393648 29 21 50
-3.042123 -1.609477 1.365545 136 160 183
-1.742091 -1.354084 1.331981 93 107 109
11.639713 2.000378 1.699476 74 73 83
-4.016268 -1.807477 1.384167 185 206 203
-0.547102 -1.154437 1.298313 211 230 231
11.167715 2.019502 1.750372 25 25 34
-5.348255 -2.079802 1.402062 147 174 176
-8.443152 -2.755643 1.439360 8 24 101
-8.443152 -2.755643 1.439360 8 24 101
-13.926988 -4.017066 1.484623 128 189 216
7.846275 1.134449 1.764043 113 115 125
-14.195931 -0.542596 2.049231 166 146 121
21.325174 3.729491 1.549249 102 114 130
-13.563104 -0.684912 1.951344 177 160 144
18.441864 8.241042 2.579360 42 33 10
-13.791435 -0.622359 1.975831 45 27 14
17.711779 8.028449 2.593217 235 224 206
5.282893 0.416934 1.765985 65 57 49
5.712029 0.632856 1.825294 21 15 24
-18.105043 1.086715 2.458270 51 42 27
3.791874 -0.314279 1.522753 96 33 6
14.301998 6.301543 2.571895 156 139 110
17.416780 8.345807 2.643461 157 102 47
3.157673 -0.314548 1.650603 44 12 3
-0.414260 -0.125744 -0.093582 66 77 82
-0.260067 -0.267344 -0.049618 105 102 95
-0.286659 -0.264142 -0.188203 121 135 136
-0.290531 -0.255972 -0.183069 97 103 103
-0.289654 -0.256965 -0.183708 142 140 131
-0.262746 -0.270880 -0.053697 40 50 59
-0.263699 -0.273330 -0.054130 66 76 86
-0.286674 -0.264149 -0.188170 183 187 178
-0.289730 -0.256469 -0.183393 141 142 142
-4.537312 6.488435 5.565204 83 93 105
0.128552 0.484739 0.320950 80 93 109
-0.263143 -0.270365 -0.055279 45 35 33
-0.286733 -0.264060 -0.188167 20 24 27
-0.286717 -0.264066 -0.188180 22 26 27
-0.286717 -0.264066 -0.188180 22 26 27
-0.286672 -0.264146 -0.188171 61 48 42
0.114232 0.511732 0.342922 153 152 147
-0.286744 -0.264051 -0.188155 71 81 96
-0.286755 -0.264052 -0.188144 70 82 104
-0.286698 -0.264170 -0.188119 32 24 22
-0.267424 -0.285609 -0.060659 75 82 86
-0.286667 -0.264140 -0.188177 164 173 166
-0.286650 -0.264123 -0.188213 180 178 179
-0.286696 -0.264169 -0.188116 24 21 17
-0.286685 -0.264157 -0.188139 37 22 10
-0.267608 -0.275350 -0.049187 147 152 154
-0.268968 -0.289178 -0.065017 92 99 108
-0.269018 -0.288989 -0.065045 149 147 138
-0.270760 -0.292720 -0.069171 95 102 108
0.187950 0.375662 0.333250 70 87 102
-0.272030 -0.294818 -0.071525 88 91 95
-0.286703 -0.264205 -0.188048 144 132 125
-0.286702 -0.264204 -0.188045 113 99 90
-0.286605 -0.264145 -0.188284 76 77 86
-0.286698 -0.264196 -0.188048 41 31 21
-0.286698 -0.264199 -0.188048 144 131 125
0.187746 0.372624 0.382108 117 111 108
-0.286692 -0.264198 -0.188058 145 135 125
-0.286693 -0.264191 -0.188049 65 52 43
-0.287318 -0.263480 -0.187511 69 65 55
0.145114 0.481506 0.466548 114 109 106
0.139994 0.495613 0.473695 54 54 61
-0.286674 -0.264140 -0.188095 159 160 150
-0.286666 -0.264117 -0.188130 161 153 144
-0.286685 -0.264171 -0.188051 79 62 50
-0.286665 -0.264090 -0.188128 34 2 1
-0.258015 0.846974 0.613041 78 84 93
-0.258015 0.846974 0.613041 78 84 93
-0.290531 -0.255972 -0.183069 97 103 103
-0.291716 -0.253675 -0.181609 147 147 141
-0.287180 -0.264493 -0.186067 87 90 89
-0.284157 -0.262460 -0.185025 137 134 129
-0.286609 -0.264139 -0.188277 62 65 74
-0.286600 -0.264170 -0.188136 149 128 119
-0.286662 -0.262680 -0.184666 10 16 19
-0.285560 -0.263284 -0.182649 178 159 157
-0.258356 -0.246724 0.013425 25 25 23
0.365134 0.263209 0.702389 76 80 87
-0.264597 -0.277259 -0.051558 151 148 143
-0.263476 -0.272760 -0.054014 75 89 97
-0.286606 -0.264146 -0.188283 137 138 142
-0.251879 -0.242106 -0.063779 163 168 161
-0.266414 -0.283035 -0.057123 88 99 111
-0.250955 -0.240386 -0.055622 64 52 40
-0.266719 -0.284050 -0.058351 149 149 144
-0.266836 -0.284696 -0.058585 137 137 136
-0.267340 -0.288341 -0.060461 145 144 140
-0.260855 -0.263782 -0.056215 71 81 96
-0.251794 -0.239139 -0.056038 82 72 62
-0.256932 -0.253113 -0.056895 134 130 129
-0.268614 -0.288435 -0.064143 88 93 97
-0.264568 -0.266331 -0.059766 63 81 86
-0.269290 -0.278318 -0.063059 125 124 122
-0.273136 -0.296421 -0.073241 88 94 102
-0.274010 -0.298066 -0.074695 146 146 143
-0.275424 -0.299815 -0.076364 147 144 141
-0.262953 -0.271416 -0.053838 41 51 58
-0.262953 -0.271416 -0.053838 41 51 58
-1.281295 1.687243 1.625754 46 59 68
-0.405426 0.556587 0.792855 185 180 171
-204.485504 306.457001 249.099503 83 95 111
-0.603372 0.787556 0.954219 27 28 33
-0.241747 -0.281439 -0.085450 15 24 27
0.191146 0.367243 0.353571 64 78 89
0.180777 0.387054 0.371474 49 65 76
-0.287060 -0.263723 -0.187782 80 78 73
-0.288701 -0.262109 -0.188168 32 20 13
-0.286722 -0.264067 -0.188074 22 23 20
-0.262317 -0.269505 -0.082334 102 64 23
-0.263497 -0.270892 -0.083235 202 186 186
-0.264273 -0.270772 -0.084138 216 211 200
-0.265768 -0.265226 -0.087232 50 11 7
-0.242884 -0.274081 -0.072337 130 139 144
-0.265769 -0.268735 -0.086219 144 92 56
-0.267229 -0.268736 -0.087195 146 140 146
-0.267524 -0.269686 -0.087198 124 136 156
-0.277387 -0.295029 -0.062264 95 46 17
-0.247137 -0.307137 -0.075725 175 191 201
-0.338347 -0.201950 0.041385 173 117 77
0.072007 0.055783 1.939212 158 165 181
0.325874 0.121208 0.829972 113 50 20
0.413878 0.112876 1.126635 96 75 65
-0.282549 -0.258394 -0.085578 70 41 27
-0.294841 -0.274602 -0.082115 11 13 4
-0.251434 -0.257676 -0.031826 91 69 47
-0.286650 -0.264139 -0.188220 127 137 142
-0.131117 0.330011 0.500912 124 138 141
-0.131117 0.330011 0.500912 124 138 141
-0.122735 0.371418 0.432488 77 95 102
-0.260276 0.424586 0.625579 26 49 55
-204.485504 306.457001 249.099503 83 95 111
-0.239894 0.392744 0.649904 95 109 118
-0.286712 -0.264187 -0.188088 106 94 91
-0.276357 0.424112 0.686455 38 34 32
-0.191089 0.337508 0.643911 85 97 95
-0.377788 0.527697 0.769009 136 126 118
-0.061954 0.196422 0.604267 85 73 56
-0.652253 1.716409 1.419690 163 160 153
0.154888 0.318233 0.171907 172 172 162
-0.032658 0.293618 0.365677 210 223 228
-2.737507 -0.003346 5.045215 9 19 20
0.182984 0.400503 0.262264 82 94 108
-1.808938 -0.864863 4.934560 107 98 93
-0.767549 0.988610 1.127075 25 29 30
-1.712710 -1.527442 5.864671 26 20 22
0.182044 0.383685 0.360598 50 75 80
0.194744 0.361106 0.352541 104 101 98
0.090328 0.621583 0.495082 105 103 91
0.185518 0.376195 0.422089 39 42 43
0.141526 0.492773 0.473963 158 156 148
-4.389840 -8.692026 22.401999 102 92 83
0.147424 0.508591 0.542943 89 92 100
-0.109356 0.645492 0.351319 18 14 18
0.169163 0.535345 0.678653 98 105 115
0.189635 0.451417 0.655987 15 16 13
0.301966 0.052803 0.511685 69 17 1
0.106673 0.298827 1.266450 141 97 64
0.220048 0.360085 0.212931 50 43 35
-0.251938 -0.258859 -0.087441 23 14 11
0.190767 0.390068 0.254200 75 89 97
0.443234 0.122256 0.057545 81 96 99
-0.256749 -0.256686 -0.053755 45 55 57
0.278793 0.278712 0.187906 20 24 27
0.242475 0.319042 0.221226 86 97 101
-0.286674 -0.264147 -0.188165 112 101 95
0.247045 0.306984 0.227984 25 29 30
0.285451 0.261177 0.194293 25 29 32
0.319025 0.216152 0.172293 43 39 31
0.442980 0.033386 0.091002 54 34 22
0.183367 0.385517 0.329412 134 135 130
0.087169 0.594915 0.437740 110 107 100
0.362449 0.117747 0.168378 51 60 55
0.192466 0.365865 0.344717 125 130 133
0.308552 0.122307 0.294367 148 107 64
0.178295 0.428929 0.557909 89 88 86
0.334579 -0.324780 0.423096 173 162 156
0.249534 0.236076 0.471518 182 130 81
0.169163 0.535345 0.678653 98 105 115
0.187897 0.457947 0.660731 118 119 114
0.241620 0.277747 0.585697 14 18 17
0.339902 -0.116376 0.645687 200 207 205
0.342696 -0.117700 0.664958 178 161 134
0.274585 0.250917 0.732013 113 50 11
0.312995 0.088053 0.713516 223 201 219
0.322400 0.057757 0.726740 40 11 8
0.353647 -0.120059 0.730722 157 139 126
0.360471 -0.159604 0.735906 98 87 83
0.212668 0.750224 0.998922 92 91 87
0.212668 0.750224 0.998922 92 91 87
0.203683 0.861458 1.039086 53 57 69
0.210594 0.882143 1.069311 99 97 95
0.331426 0.198156 0.777995 102 94 92
0.332956 0.082894 0.816384 140 33 5
0.312422 0.230526 0.881366 33 24 37
0.354898 0.133057 0.946438 213 198 191
0.385412 -0.041625 0.910632 224 213 214
0.325120 0.957037 1.369426 94 93 91
0.395637 0.233959 1.165747 143 91 76
0.411375 0.133779 1.133775 74 58 58
0.390795 0.989849 1.765511 114 109 107
0.427405 0.052302 1.125378 55 25 19
0.345652 0.655574 1.084920 80 86 95
0.455913 0.074158 1.214455 149 137 148
-0.299613 -0.256879 -0.076868 143 131 127
0.620261 -0.157134 1.421209 143 131 127
-0.012679 0.333962 0.765786 10 15 18
-0.287160 -0.263931 -0.187331 47 66 72
-0.237818 0.105253 1.403282 139 152 150
-8.861522 -3.955387 10.691869 142 128 119
0.119507 0.084248 1.073737 102 64 23
0.360507 0.161464 0.177136 92 92 93
0.557775 -0.111401 0.081311 133 134 141
-2.267487 -1.559394 3.728207 48 39 31
-0.721308 -1.044246 1.995860 55 43 31
0.388534 0.105975 0.475140 36 16 29
0.229076 0.847425 1.100354 116 112 109
0.355272 -0.501462 0.780758 234 174 123
0.120705 0.381869 1.741727 58 14 0
0.383880 0.255866 0.765845 122 125 142
0.230253 0.773851 0.893762 71 80 79
0.381646 0.543053 0.970328 100 109 116
0.288487 0.243221 0.163413 94 85 83
-0.069554 -1.470026 2.621405 85 28 9
-0.284347 -0.264473 -0.188082 136 96 96
-0.284616 -0.264427 -0.188171 184 145 151
-0.290660 -0.265700 -0.187785 108 71 44
-0.284349 -0.264467 -0.188077 201 150 126
-0.285010 -0.264397 -0.188283 33 14 11
-0.285010 -0.264397 -0.188283 33 14 11
-0.251447 -0.232846 -0.042069 74 59 69
-0.290573 -0.265653 -0.187742 106 70 48
-0.290573 -0.265653 -0.187742 106 70 48
-0.285030 -0.264370 -0.188278 137 112 105
-0.283059 -0.264909 -0.187400 36 34 40
-0.285029 -0.264356 -0.188272 157 125 116
-0.282812 -0.265052 -0.187228 12 11 19
-0.251644 -0.232347 -0.042056 112 93 100
-0.283073 -0.264907 -0.187413 65 64 63
-0.282821 -0.265065 -0.187230 10 8 19
-0.233511 -0.243884 0.002949 163 116 88
-0.283106 -0.264892 -0.187437 72 70 73
-0.283181 -0.264855 -0.187486 94 92 98
-0.283199 -0.264849 -0.187496 4 3 8
-0.286605 -0.264145 -0.188284 171 144 120
-0.285100 -0.264327 -0.188275 186 162 151
-0.282902 -0.265013 -0.187297 17 19 34
-0.283025 -0.264947 -0.187387 64 66 78
-0.286605 -0.264145 -0.188284 124 111 104
-0.286606 -0.264145 -0.188284 66 70 74
-0.286722 -0.264291 -0.188101 188 202 224
-0.285695 -0.264472 -0.188229 9 39 170
-0.285746 -0.264457 -0.188234 6 33 184
-0.251533 -0.231695 -0.042151 159 156 167
-0.285893 -0.264411 -0.188266 148 188 254
-0.286579 -0.264168 -0.188260 205 232 252
-0.254705 -0.229942 -0.041162 162 156 173
-0.251689 -0.231532 -0.042101 196 189 196
-0.285915 -0.264406 -0.188254 7 35 153
-0.286723 -0.264285 -0.188104 182 181 188
-0.284809 -0.264333 -0.188161 179 159 158
-0.220483 -0.241866 -0.057647 75 69 85
-0.284318 -0.264445 -0.188014 28 31 38
-0.285987 -0.264384 -0.188255 1 25 151
-0.252791 -0.230768 -0.041731 210 185 174
-0.285318 -0.264253 -0.188265 242 206 185
-0.286605 -0.264145 -0.188284 204 188 181
-0.253899 -0.230099 -0.041359 120 66 36
-0.287800 -0.264296 -0.188276 73 30 13
-0.223217 -0.247143 -0.005534 9 13 16
-0.286605 -0.264145 -0.188284 91 91 82
-0.284750 -0.264337 -0.188114 194 187 195
-0.285357 -0.264234 -0.188239 207 155 104
-0.287403 -0.264344 -0.187824 80 35 5
-0.284807 -0.264325 -0.188109 152 99 54
-0.288323 -0.264424 -0.188025 23 7 4
-0.287255 -0.264300 -0.187895 207 152 113
-0.283631 -0.264694 -0.187727 147 87 35
-0.286858 -0.264083 -0.188237 23 85 213
-0.288349 -0.264386 -0.187901 134 116 110
-0.284066 -0.264549 -0.187864 110 46 8
-0.282440 -0.265403 -0.187077 95 89 85
-0.282449 -0.265396 -0.187087 40 35 39
-0.284037 -0.264567 -0.187850 106 44 4
-0.284622 -0.264407 -0.187983 142 86 39
-0.282544 -0.265327 -0.187157 53 23 14
-0.282544 -0.265327 -0.187157 53 23 14
-0.282638 -0.265259 -0.187225 75 33 16
-0.282719 -0.265205 -0.187277 93 36 17
-0.286605 -0.264145 -0.188284 163 118 86
-0.287155 -0.264257 -0.187942 136 119 107
-0.284041 -0.264576 -0.187842 149 92 47
-0.283370 -0.264843 -0.187611 80 32 9
-0.287014 -0.264248 -0.188000 161 151 142
-0.283573 -0.264758 -0.187689 91 40 15
-0.284034 -0.264587 -0.187835 94 40 14
-0.284434 -0.264488 -0.187918 142 82 29
-0.283552 -0.264904 -0.187714 224 196 175
-0.279305 -0.266409 -0.187024 93 93 99
-0.278987 -0.266538 -0.186970 39 31 26
-0.278987 -0.266538 -0.186970 39 31 26
-0.284005 -0.264678 -0.187800 149 87 48
-0.283936 -0.264709 -0.187782 147 87 39
-0.283097 -0.265002 -0.187511 4 6 5
-0.282880 -0.265124 -0.187409 12 12 14
-0.282293 -0.265375 -0.187495 211 174 150
-0.283846 -0.264711 -0.187764 110 51 10
-0.283234 -0.264940 -0.187571 20 17 19
-0.286606 -0.264145 -0.188283 82 35 18
-0.283752 -0.264770 -0.187739 14 18 16
-0.288854 -0.264389 -0.187487 239 171 122
-0.287080 -0.264224 -0.187969 230 232 227
-0.287284 -0.264218 -0.187884 172 122 88
-0.283498 -0.264855 -0.187674 4 9 5
-0.283457 -0.264889 -0.187665 136 83 40
-0.283332 -0.264923 -0.187622 19 19 19
-0.288868 -0.264360 -0.187442 97 70 59
-0.288792 -0.264329 -0.187479 155 113 81
-0.286631 -0.264144 -0.188277 37 24 14
-0.286620 -0.264144 -0.188281 210 164 134
-0.286636 -0.264143 -0.188274 155 138 127
-0.282866 -0.265157 -0.187460 21 19 22
-0.282577 -0.265330 -0.187311 36 36 38
-0.282306 -0.265426 -0.187445 66 41 27
-0.286608 -0.264145 -0.188281 228 201 186
-0.286620 -0.264144 -0.188276 99 98 95
-0.297663 -0.263653 -0.183389 164 125 92
-0.280409 -0.266301 -0.187124 44 25 19
-0.286621 -0.264144 -0.188276 20 21 22
-0.286605 -0.264145 -0.188281 134 96 73
-0.286605 -0.264145 -0.188281 134 96 73
-0.279739 -0.266616 -0.187014 148 145 145
-0.282137 -0.265599 -0.187266 17 16 21
-0.286820 -0.264221 -0.188056 106 97 90
-0.282114 -0.265646 -0.187189 11 12 10
-0.286608 -0.264143 -0.188280 116 81 56
-0.281924 -0.265815 -0.187051 92 84 79
-0.286821 -0.264218 -0.188053 127 118 111
-0.286611 -0.264141 -0.188278 207 154 113
-0.281654 -0.266043 -0.186944 20 20 22
-0.281429 -0.266377 -0.186620 147 141 130
-0.287088 -0.264182 -0.187941 171 173 168
0.074898 -0.433326 -0.140111 25 26 31
-0.286605 -0.264145 -0.188284 26 29 24
-0.281155 -0.266787 -0.186335 117 111 99
-0.281247 -0.266289 -0.186944 58 50 47
-0.279118 -0.267323 -0.186785 130 73 31
-0.287254 -0.264149 -0.187859 215 221 217
-0.280741 -0.266557 -0.186927 83 44 23
-0.285860 -0.260900 -0.185381 156 157 149
-0.286911 -0.264195 -0.187999 174 181 174
-0.281077 -0.266750 -0.186497 74 82 86
-0.281035 -0.266859 -0.186394 190 184 172
-0.281035 -0.266859 -0.186394 190 184 172
-0.263770 -0.275293 -0.184856 100 55 27
-0.239021 -0.249225 -0.011319 118 75 52
-0.546014 -0.377492 0.019608 112 64 39
-0.255761 -0.279643 -0.183874 131 96 74
-0.230574 -0.292673 -0.180804 98 71 67
-0.289107 -0.261385 -0.188099 102 101 99
-0.280105 -0.267017 -0.186797 131 128 129
-0.278488 -0.267868 -0.186643 20 23 18
-0.274574 -0.269967 -0.186179 29 31 26
0.006975 -0.418692 -0.152278 18 17 15
-0.284061 -0.265201 -0.182475 186 187 205
-0.273889 -0.270536 -0.186073 146 141 143
-0.287374 -0.264109 -0.187776 168 177 172
-0.287374 -0.264109 -0.187776 168 177 172
-0.280751 -0.267104 -0.186391 140 138 134
-0.226365 -0.296458 -0.180504 64 75 90
-0.242694 -0.249435 -0.012215 61 73 85
-0.286605 -0.264145 -0.188284 66 84 99
-0.286883 -0.263954 -0.187970 141 147 140
-0.286639 -0.264205 -0.188116 142 107 99
-0.242776 -0.249756 -0.011874 24 18 18
-0.262712 -0.263436 -0.038374 24 18 18
-0.279785 -0.267474 -0.186604 60 60 62
-0.289022 -0.263781 -0.187012 89 71 57
-0.286618 -0.264146 -0.188260 66 56 46
-0.269088 -0.273672 -0.185501 14 16 15
-0.245487 -0.249655 -0.013060 13 11 12
-0.293511 -0.259850 -0.188102 13 14 16
-0.287240 -0.264119 -0.187805 231 233 232
-0.333551 -0.252837 -0.168621 16 20 19
-0.270090 -0.273394 -0.185603 54 68 68
-0.289129 -0.263727 -0.186914 158 120 99
-0.307610 -0.259532 -0.178670 23 28 27
-0.333522 -0.253577 -0.167327 18 26 24
-0.316898 -0.257329 -0.174551 35 39 40
-0.278095 -0.268719 -0.186383 117 112 106
-0.292974 -0.260106 -0.187968 88 98 97
-0.288621 -0.263828 -0.187131 191 199 191
-0.392168 -0.238002 -0.143605 13 17 16
-0.244799 -0.250327 -0.014387 20 28 27
-0.286897 -0.264181 -0.187967 187 188 183
-0.293060 -0.260030 -0.187957 12 18 18
-0.329253 -0.254266 -0.169014 21 30 29
-0.293854 -0.259494 -0.188010 79 83 84
-0.293063 -0.259992 -0.187920 73 79 82
-0.299293 -0.261288 -0.182121 56 66 65
-0.289207 -0.263086 -0.187096 26 26 25
-0.245552 -0.250687 -0.015122 14 14 16
-0.293548 -0.259607 -0.187897 10 11 13
-0.293548 -0.259607 -0.187897 10 11 13
-0.293240 -0.259674 -0.187716 96 100 103
-0.296577 -0.257427 -0.188050 86 85 84
-0.370775 -0.242068 -0.147840 51 47 46
-0.370775 -0.242068 -0.147840 51 47 46
-0.299024 -0.261238 -0.181732 64 72 75
-0.293248 -0.259635 -0.187681 16 17 19
-0.286586 -0.264144 -0.188275 26 17 10
-0.291766 -0.263025 -0.185303 106 125 129
-0.291799 -0.263014 -0.185254 98 117 121
-0.312455 -0.257195 -0.175134 173 187 195
-0.296110 -0.261939 -0.182869 183 194 200
-0.274712 -0.272525 -0.184756 152 151 149
-0.286850 -0.263917 -0.188035 185 120 70
-0.286830 -0.264035 -0.187834 58 56 46
-0.286789 -0.264006 -0.187969 106 55 23
-0.286797 -0.263941 -0.188058 18 8 4
-0.301856 -0.202935 -0.034648 146 109 105
-0.286605 -0.264145 -0.188284 79 40 14
-0.316208 -0.191676 -0.031592 48 52 65
-0.254687 -0.230656 -0.041226 67 46 42
-0.321449 -0.188099 -0.031004 85 94 121
-0.257275 -0.228875 -0.040494 63 34 26
-0.386377 -0.150913 -0.032432 65 67 79
-0.225184 -0.241124 -0.053868 1 28 125
-0.225184 -0.241124 -0.053868 1 28 125
-0.225547 -0.241190 -0.053734 128 166 243
-0.227786 -0.241050 -0.052431 93 127 237
-0.252867 -0.230869 -0.041706 223 230 238
-0.265094 -0.222656 -0.037669 202 150 104
-0.291901 -0.204215 -0.030800 67 73 89
-0.286721 -0.264271 -0.188108 187 190 195
-0.199091 -0.232910 -0.078694 214 183 159
-0.287267 -0.264315 -0.187888 255 232 204
-0.284055 -0.264533 -0.187813 80 23 0
-0.287189 -0.264265 -0.187927 194 159 132
-0.286850 -0.264248 -0.188063 88 74 65
-0.350324 -0.278330 0.001484 124 123 121
-0.266105 -0.243893 0.003346 185 194 191
-0.284347 -0.264473 -0.188082 136 96 96
-0.228665 -0.244859 0.001807 9 22 118
-0.228940 -0.244801 0.001752 6 17 110
-0.259045 -0.238766 0.004069 56 54 65
-0.286605 -0.264145 -0.188284 87 90 89
-0.286716 -0.264276 -0.188108 203 216 235
-0.286716 -0.264276 -0.188108 203 216 235
-0.238932 -0.244066 0.000760 60 60 74
-0.138132 -0.269031 0.015819 168 125 94
-0.261723 -0.240726 -0.000934 86 76 74
-0.247175 -0.243779 -0.001534 152 97 52
-0.259335 -0.241416 -0.001202 71 26 3
-0.240813 -0.245066 -0.002441 152 98 57
-0.231450 -0.247475 -0.006429 236 229 227
-0.240082 -0.245922 -0.004199 139 79 29
-0.286632 -0.264145 -0.188277 42 19 9
-0.286634 -0.264144 -0.188276 93 60 41
-0.240618 -0.246209 -0.004887 5 5 3
-0.226978 -0.249354 -0.011192 15 15 15
-0.226978 -0.249354 -0.011192 15 15 15
-0.255340 -0.244059 -0.004563 58 57 59
-0.286614 -0.264145 -0.188278 26 24 21
-0.246585 -0.245865 -0.005616 98 98 100
-0.286606 -0.264145 -0.188283 91 49 15
-0.254624 -0.245415 -0.006746 52 49 45
-0.269831 -0.242163 -0.005884 142 140 131
-0.254304 -0.245750 -0.007273 66 57 54
-0.286642 -0.264127 -0.188273 55 58 63
-0.286643 -0.264127 -0.188272 224 210 207
-0.252185 -0.246832 -0.008745 141 96 65
-0.280942 -0.266908 -0.186436 157 150 140
-0.251012 -0.248189 -0.010979 102 93 89
-0.234771 -0.251137 -0.015574 43 46 44
-0.316898 -0.257329 -0.174551 35 39 40
-0.287313 -0.264100 -0.187755 190 203 200
-0.286879 -0.264183 -0.187974 103 101 93
-0.292672 -0.262858 -0.185122 76 85 82
-0.253793 -0.249603 -0.014004 13 18 21
-0.278374 -0.243941 -0.010561 92 104 112
-0.246611 -0.251100 -0.016049 89 87 88
-0.248074 -0.250808 -0.015566 45 61 60
-0.219649 -0.272561 0.023510 145 140 140
-0.249945 -0.250789 -0.015769 14 13 10
-0.294325 -0.261717 -0.184510 47 54 54
-0.248035 -0.251256 -0.016483 6 8 7
-0.262503 -0.248740 -0.013808 54 44 40
-0.245947 -0.251645 -0.017162 17 18 18
-0.277733 -0.244879 -0.011492 146 142 133
-0.246092 -0.251882 -0.017640 69 71 68
-0.304926 -0.259107 -0.179077 111 118 124
-0.279017 -0.245050 -0.011997 158 158 150
-0.246638 -0.252088 -0.018067 23 25 22
-0.247042 -0.252050 -0.018015 8 9 9
-0.247042 -0.252050 -0.018015 8 9 9
-0.297953 -0.260905 -0.182547 19 20 23
-0.247660 -0.252030 -0.018006 9 13 14
-0.249331 -0.251856 -0.017744 4 8 9
-0.279693 -0.245237 -0.012374 147 145 138
-0.279882 -0.245659 -0.012892 141 146 151
-0.266003 -0.249492 -0.015486 116 111 105
-0.292726 -0.262327 -0.184981 173 180 186
-0.287219 -0.264097 -0.187694 251 255 255
-0.280296 -0.245707 -0.013045 87 89 101
-0.249326 -0.252787 -0.019601 6 11 14
-0.249987 -0.252784 -0.019622 50 54 57
-0.270718 -0.249105 -0.015580 118 120 116
-0.281869 -0.245721 -0.013406 118 115 108
-0.265845 -0.250277 -0.016643 131 148 142
-0.269127 -0.249809 -0.016362 118 122 124
-0.260920 -0.251497 -0.018038 24 28 29
-0.281175 -0.246487 -0.014102 111 106 103
-0.264372 -0.251131 -0.017766 117 109 94
-0.271564 -0.249684 -0.016522 139 138 132
-0.264561 -0.251408 -0.018246 142 125 97
-0.264965 -0.251430 -0.018312 71 56 33
-0.264965 -0.251430 -0.018312 71 56 33
-0.298165 -0.259490 -0.182821 18 28 38
-0.282383 -0.246739 -0.014623 156 150 149
-0.247347 -0.254212 -0.022478 159 155 149
-0.306419 -0.258872 -0.174467 186 198 196
-0.290240 -0.263048 -0.185891 88 102 105
-0.290240 -0.263048 -0.185891 88 102 105
-0.266810 -0.251425 -0.018480 130 144 143
-0.286674 -0.264149 -0.188170 113 100 91
-0.266332 -0.252102 -0.019471 137 126 102
-0.288350 -0.263823 -0.186672 122 119 126
-0.297447 -0.261189 -0.180160 64 50 49
-0.286687 -0.264161 -0.188143 56 43 34
-0.293421 -0.262234 -0.183198 55 41 38
-0.288090 -0.263579 -0.187363 130 141 135
-0.265206 -0.252697 -0.020319 21 30 29
-0.286605 -0.264145 -0.188284 49 39 35
-0.267228 -0.252468 -0.020107 35 32 31
-0.289030 -0.263059 -0.187022 129 118 114
-0.261112 -0.253683 -0.021787 25 29 30
-0.268246 -0.252391 -0.020081 140 123 104
-0.288161 -0.263460 -0.187414 50 62 62
-0.288417 -0.263335 -0.187302 41 40 36
-0.287957 -0.263563 -0.187493 30 30 33
-0.288700 -0.263197 -0.187174 39 30 25
-0.251064 -0.255207 -0.024520 97 85 77
-0.288175 -0.263442 -0.187411 47 56 57
-0.292398 -0.262852 -0.183142 119 106 100
-0.287849 -0.263666 -0.187443 73 79 78
-0.307920 -0.259080 -0.169964 154 151 140
-0.288432 -0.263799 -0.186487 91 81 76
-0.252172 -0.255253 -0.024557 182 180 174
-0.252291 -0.255404 -0.024863 191 201 202
-0.252291 -0.255404 -0.024863 191 201 202
-0.287716 -0.263650 -0.187603 84 97 100
-0.288416 -0.263802 -0.186463 22 22 22
-0.307274 -0.259238 -0.169914 103 86 78
-0.287667 -0.263710 -0.187563 105 114 108
-0.287667 -0.263710 -0.187563 105 114 108
-0.289536 -0.263536 -0.185401 86 77 69
-0.234860 -0.255796 -0.037844 43 26 17
-0.286553 -0.248753 -0.017474 66 79 83
-0.277089 -0.252253 -0.020548 109 110 106
-0.284257 -0.250389 -0.018941 100 96 87
-0.275522 -0.253118 -0.021601 168 166 167
-0.279011 -0.252449 -0.020948 49 69 91
-0.274826 -0.253549 -0.022166 187 197 199
-0.274826 -0.253549 -0.022166 187 197 199
-0.270715 -0.280445 -0.064825 144 140 135
-0.287356 -0.249779 -0.018629 99 95 86
-0.276384 -0.253419 -0.022056 174 173 170
-0.280188 -0.252489 -0.021070 30 28 32
-0.275586 -0.253808 -0.022558 75 85 86
-0.263141 -0.255868 -0.025504 43 53 57
-0.271945 -0.254992 -0.024132 80 85 90
-0.286819 -0.264140 -0.187871 138 123 116
-0.296933 -0.264272 -0.183663 135 87 50
-0.296933 -0.264272 -0.183663 135 87 50
0.092279 -0.501484 -0.086633 14 18 16
-0.295491 -0.233034 -0.025587 11 12 10
-0.328534 -0.197852 -0.018253 20 20 22
-0.257172 -0.265566 -0.049086 221 230 229
-0.292082 -0.262583 -0.184174 138 125 119
-0.328661 -0.254007 -0.151887 81 73 60
-0.358064 -0.138557 0.022200 136 129 123
-0.344780 -0.150314 0.022327 78 80 80
-0.333009 -0.163629 0.017991 23 25 24
-0.286923 -0.263913 -0.187990 5 10 8
-0.286928 -0.263897 -0.187996 146 151 147
-0.330330 -0.163094 0.022231 24 16 13
-2.606916 -3.755934 2.970157 16 18 17
-0.540058 -0.266744 0.009386 127 71 24
-0.267475 -0.273425 -0.083719 240 195 147
-0.263066 -0.262316 -0.085285 156 130 76
-0.286806 -0.263942 -0.188052 23 10 10
-0.286787 -0.263956 -0.188058 62 30 19
-0.311343 -0.251797 -0.003822 25 18 11
-0.107139 -0.457079 -0.045838 127 117 109
-0.579421 -0.042557 -0.022036 63 37 25
-0.174635 -0.312136 -0.054003 223 188 158
-0.288298 -0.263404 -0.187353 51 57 59
-0.220515 -0.369232 -0.012598 114 122 128
-0.287028 -0.263869 -0.187944 118 121 122
-0.855222 0.835224 0.163998 60 60 62
-0.815530 0.900722 0.454236 70 78 97
-0.288350 -0.263823 -0.186672 122 119 126
-0.290572 -0.263291 -0.184792 61 48 40
-1.035195 1.489716 0.500457 116 68 38
-1.711760 0.946733 0.212016 50 24 9
-1.636088 0.740141 0.097816 17 17 19
-1.644053 0.731136 0.129640 114 109 105
-1.202661 0.512052 0.470169 59 66 82
-0.299901 -0.260540 -0.180177 128 139 141
-0.287853 -0.263697 -0.187246 160 167 160
-10.304748 4.218437 6.112315 12 17 21
0.371442 0.164194 0.237267 101 97 86
-0.286949 -0.263908 -0.187973 14 22 24
-0.286956 -0.263888 -0.187982 27 30 29
-0.286927 -0.263903 -0.187994 76 82 80
-0.348567 -0.142481 0.029598 29 28 24
0.259305 0.223738 0.295882 157 130 112
-0.286805 -0.263944 -0.188052 114 92 86
0.154438 0.318277 0.156078 79 35 13
-0.287155 -0.263827 -0.187881 128 129 127
-168.749634 67.109657 123.740242 22 20 24
-0.286999 -0.263875 -0.187961 29 31 30
0.199269 0.299400 0.280930 76 72 73
0.199269 0.299400 0.280930 76 72 73
0.149324 0.351827 0.286463 76 85 80
-0.286831 -0.263994 -0.187935 148 145 134
-0.286823 -0.263936 -0.188045 25 9 16
-0.286815 -0.263935 -0.188050 18 17 8
-0.286799 -0.263938 -0.188058 123 140 115
3.776229 2.293723 3.053647 71 72 67
-0.286605 -0.264145 -0.188284 36 10 1
0.018223 -0.450968 0.421123 191 169 165
-0.283074 -0.266029 -0.187644 120 117 108
-0.123086 -0.370700 0.125665 199 176 165
-0.266873 -0.281336 -0.150266 124 68 9
-0.280758 -0.267664 -0.182429 34 32 37
-0.284344 -0.266849 -0.187019 80 37 10
-0.072366 2.451548 0.307054 4 11 6
-0.285434 -0.267646 -0.186869 164 139 115
0.155239 0.280073 0.080884 118 59 22
-0.286605 -0.264145 -0.188284 116 72 23
-0.285505 -0.267601 -0.186869 165 141 122
-0.285035 -0.266862 -0.187380 217 165 125
-0.312718 -0.233633 -0.081518 89 48 42
-0.254494 -0.290515 -0.134573 206 197 197
-0.286605 -0.264145 -0.188284 27 3 0
-0.252954 -0.291546 -0.132657 72 41 28
-0.314053 -0.229826 -0.080884 197 154 148
-0.252964 -0.291560 -0.132913 142 93 54
-0.256578 -0.289178 -0.138397 23 7 5
-0.254998 -0.290202 -0.136094 16 15 7
-0.263357 -0.284917 -0.148479 89 49 20
-0.257263 -0.288848 -0.139558 153 99 38
-0.258512 -0.288036 -0.141467 28 17 15
-0.306913 -0.259675 -0.086400 52 10 1
-0.260527 -0.286737 -0.144666 37 25 17
-0.261473 -0.286155 -0.146111 81 41 20
-0.297630 -0.274967 -0.060710 11 13 24
-0.317439 -0.216621 -0.083875 144 89 30
-0.240441 -0.299774 -0.115565 143 95 40
-0.311136 -0.247102 -0.089294 10 24 52
-0.205389 -0.252595 0.082845 87 83 97
-0.204564 -0.252742 0.083041 10 7 23
-0.202921 -0.253136 0.083951 14 17 29
-0.288139 -0.262839 -0.184470 30 35 36
-0.204476 -0.252669 0.082294 109 110 131
-0.203602 -0.252823 0.082657 1 1 19
-0.286730 -0.264032 -0.188129 228 233 237
-0.305070 -0.254279 -0.083029 93 92 89
-0.311689 -0.241398 -0.088193 133 154 185
-0.286605 -0.264145 -0.188284 147 134 123
-0.256041 -0.243473 0.020169 59 12 15
-0.260568 -0.242730 0.012624 51 14 8
-0.261210 -0.242630 0.011337 228 192 180
-0.249740 -0.244531 0.028920 121 63 56
-0.285454 -0.266530 -0.187277 202 201 198
-0.255590 -0.243588 0.020163 221 172 176
-0.286605 -0.264145 -0.188284 169 110 49
-0.268971 -0.241218 -0.002722 112 53 21
-0.268971 -0.241218 -0.002722 112 53 21
-0.286605 -0.264145 -0.188284 131 76 25
-0.309143 -0.241442 -0.084690 10 23 49
-0.262038 -0.242552 0.009302 223 186 180
-0.285953 -0.267009 -0.186958 251 247 243
-0.259071 -0.243095 0.013711 217 168 164
-0.259071 -0.243095 0.013711 217 168 164
-0.285967 -0.267015 -0.186946 184 159 137
-0.244497 -0.296980 -0.125699 55 53 58
-0.241624 -0.298817 -0.121880 58 63 75
-0.262088 -0.242630 0.008362 64 36 22
-0.247433 -0.245028 0.029529 211 172 172
-0.259941 -0.243015 0.011462 216 174 170
-0.314927 -0.223423 -0.075482 141 102 97
-0.316204 -0.220150 -0.076653 218 174 175
-0.309880 -0.235890 -0.070296 197 150 144
-0.262722 -0.242658 0.006066 240 195 192
-0.246957 -0.245239 0.028078 92 49 39
-0.248352 -0.245028 0.026210 116 72 65
-0.242859 -0.245846 0.032240 31 26 31
-0.272518 -0.240845 -0.011449 167 111 55
-0.305775 -0.232878 -0.077286 11 22 44
-0.285024 -0.266300 -0.186864 212 184 160
-0.283176 -0.266033 -0.186327 17 15 30
-0.279005 -0.265775 -0.183618 205 201 203
-0.282529 -0.266500 -0.185886 168 155 146
-0.286605 -0.264145 -0.188284 58 58 57
-0.267150 -0.253534 -0.089060 222 236 252
-0.247473 -0.294322 -0.120522 75 65 50
-0.285548 -0.267553 -0.186897 190 153 125
-0.308375 -0.262473 -0.088896 120 71 53
-0.294637 -0.265712 -0.124069 78 41 8
-4.557743 -5.827093 16.606552 217 221 224
-0.261171 -0.286326 -0.145500 140 102 65
-0.259447 -0.287436 -0.143250 38 16 9
-0.286605 -0.264148 -0.188279 140 94 44
-0.319438 -0.209515 -0.085664 178 118 66
-0.268395 -0.241196 -0.000607 156 97 43
-0.285808 -0.259444 -0.150634 228 233 237
-0.312510 -0.240827 -0.089190 96 115 148
-0.257334 -0.243233 0.018538 76 28 22
-0.254470 -0.243744 0.022514 157 115 116
-0.285851 -0.266922 -0.187025 199 203 214
-0.268259 -0.241467 -0.002060 119 59 5
-0.247083 -0.245154 0.028963 200 160 158
-0.252295 -0.244429 0.020921 159 125 124
-0.312250 -0.227565 -0.083091 13 15 21
-0.286605 -0.264145 -0.188284 21 22 17
-0.298039 -0.239960 -0.071512 92 51 32
-0.274433 -0.240518 -0.015537 11 10 8
-0.286576 -0.264151 -0.188262 255 254 255
-0.320041 -0.209711 -0.076113 24 15 8
-0.284623 -0.266210 -0.186651 110 71 43
-0.286671 -0.264134 -0.188110 125 98 80
-0.331114 -0.192340 -0.086965 132 90 48
-0.267203 -0.242421 -0.004415 201 163 162
-0.285382 -0.267276 -0.185791 255 254 254
-0.336117 -0.186047 -0.089771 163 120 122
-0.329738 -0.193697 -0.085757 36 26 30
-0.336367 -0.185385 -0.089336 210 170 171
-0.335821 -0.185602 -0.088245 221 186 187
-0.223927 -0.282959 -0.148236 48 25 19
-0.330713 -0.189879 -0.082948 106 55 15
-0.330713 -0.189879 -0.082948 106 55 15
-0.286605 -0.264145 -0.188284 172 172 179
-0.336421 -0.182769 -0.084737 156 161 167
-0.328880 -0.190761 -0.080364 70 48 37
-0.328606 -0.190457 -0.079451 78 44 27
-0.285057 -0.267111 -0.185615 208 217 224
-0.338980 -0.179627 -0.084674 17 20 27
-0.338929 -0.179878 -0.084622 57 63 70
-0.326565 -0.190987 -0.076249 215 214 225
-0.326565 -0.190987 -0.076249 215 214 225
-0.339061 -0.178886 -0.083060 60 65 69
-0.338935 -0.179481 -0.083515 81 84 91
-0.339786 -0.179243 -0.083132 79 82 91
-0.324365 -0.191923 -0.073474 19 20 32
-0.231402 -0.286453 -0.153522 1 35 122
-0.285356 -0.266996 -0.185710 251 253 252
-0.323807 -0.191489 -0.071962 10 10 41
-0.325031 -0.190026 -0.072172 124 90 64
-0.327746 -0.187363 -0.073338 151 108 64
-0.327899 -0.185520 -0.070742 201 163 122
-0.283694 -0.264960 -0.186238 24 23 15
-0.284793 -0.266758 -0.187238 182 126 76
-0.256634 -0.243353 0.019283 104 56 59
-0.253672 -0.243879 0.023548 234 194 194
-0.285919 -0.267079 -0.186959 196 157 117
-0.285916 -0.267061 -0.186968 252 244 239
-0.285934 -0.267031 -0.186964 247 244 241
-0.248410 -0.244817 0.029508 151 98 94
-0.307658 -0.258366 -0.177888 23 25 25
-0.262719 -0.242628 0.006337 145 102 98
-0.272624 -0.240704 -0.011296 175 115 56
-0.267439 -0.242139 -0.003622 165 119 118
-0.285068 -0.266284 -0.186759 108 74 50
-0.285068 -0.266284 -0.186759 108 74 50
-0.284287 -0.266174 -0.186473 60 19 4
-0.265007 -0.242935 -0.001797 221 186 187
-0.279513 -0.238928 -0.026118 57 57 65
-0.278615 -0.239737 -0.023702 60 65 69
-0.279520 -0.239163 -0.025692 79 82 91
-0.242655 -0.281806 -0.160367 5 32 137
-0.254593 -0.245408 0.006307 224 220 223
-0.286605 -0.266162 -0.186681 228 192 151
-0.281098 -0.237387 -0.030264 94 92 79
-0.205981 -0.253364 0.042292 9 10 12
-0.205981 -0.253364 0.042292 9 10 12
-0.274203 -0.241900 -0.016870 161 102 40
-0.250499 -0.290772 -0.160787 148 87 34
-0.276982 -0.241512 -0.020664 144 95 51
-0.284755 -0.264551 -0.187139 64 31 9
-0.260705 -0.290377 -0.163380 122 78 38
-0.260705 -0.290377 -0.163380 122 78 38
-0.281670 -0.266263 -0.185352 16 14 12
-0.283090 -0.265497 -0.186110 30 22 11
-0.284581 -0.264494 -0.187000 205 146 86
-0.284581 -0.264494 -0.187000 205 146 86
-0.285365 -0.263747 -0.187577 37 19 9
-0.285422 -0.263668 -0.187630 128 116 104
-0.284937 -0.262734 -0.188161 76 76 64
-0.284287 -0.264560 -0.186747 83 52 30
-0.285359 -0.262914 -0.187890 124 76 38
-0.283550 -0.265075 -0.186176 94 45 19
-0.283661 -0.264987 -0.186206 31 35 34
-0.284868 -0.263716 -0.187072 17 12 12
-0.282821 -0.265802 -0.185631 93 107 94
-0.284677 -0.265748 -0.185594 183 192 193
-0.284132 -0.264566 -0.186406 15 16 16
-0.284132 -0.264566 -0.186406 15 16 16
-0.284889 -0.265560 -0.185691 226 233 226
-0.284035 -0.265880 -0.185472 255 255 255
-0.284464 -0.264190 -0.186586 11 13 12
-0.284363 -0.264326 -0.186447 8 18 15
-0.284501 -0.264144 -0.186544 70 76 72
-0.286605 -0.264145 -0.188284 14 23 22
-0.284362 -0.265032 -0.185885 105 111 107
-0.284534 -0.264157 -0.186401 87 90 89
-0.284702 -0.263857 -0.186513 47 48 49
-0.311723 -0.235854 -0.077206 197 146 141
-0.321751 -0.205137 -0.078693 114 74 42
-0.317895 -0.214644 -0.073096 188 148 148
-0.318118 -0.213667 -0.073169 64 24 7
-0.285124 -0.266265 -0.186720 115 92 78
-0.286292 -0.263654 -0.188228 10 17 67
-0.283521 -0.263815 -0.187412 51 56 55
-0.283622 -0.265132 -0.186395 200 176 150
-0.284029 -0.264702 -0.186515 51 56 58
-0.292736 -0.265140 -0.185022 84 75 60
-0.300979 -0.247965 -0.030059 95 53 18
-0.283101 -0.265437 -0.186069 105 97 88
-0.284862 -0.263763 -0.187079 110 78 56
-0.285113 -0.262900 -0.187627 122 124 114
-0.284936 -0.262893 -0.187382 121 115 101
-0.283738 -0.265842 -0.185441 183 199 199
-0.237524 -0.276995 -0.170750 57 29 9
-0.285493 -0.262880 -0.188193 70 47 32
-0.284319 -0.262484 -0.188030 139 135 121
-0.284221 -0.262412 -0.187864 131 132 117
1.034665 -0.083062 1.680208 239 237 239
0.372323 0.290715 0.832615 234 221 215
-0.050185 0.412253 0.138854 118 74 73
-0.285028 -0.266275 -0.186746 124 97 84
-0.107922 -0.383368 0.054819 123 87 57
-0.284775 -0.264234 -0.187111 105 69 47
-0.282164 -0.266277 -0.185321 78 68 56
-0.478683 -0.405778 1.046606 125 137 162
-0.452120 -0.398662 0.934646 52 46 62
-0.280421 -0.260533 -0.185024 39 26 17
-0.613697 -0.489930 2.291478 28 16 15
-0.572193 -0.480406 2.093147 101 101 120
-0.283840 -0.260855 -0.163452 134 85 38
-0.458610 -0.461746 1.631083 169 118 63
-0.326065 -0.221170 0.140996 121 76 55
-0.314286 -0.486475 1.489680 7 28 57
-0.422165 -0.118068 1.778784 101 49 25
-0.422165 -0.118068 1.778784 101 49 25
-0.281393 -0.262418 -0.182845 12 11 8
-0.288882 -0.249791 -0.115766 84 75 62
-2.281929 -2.846476 89.427414 41 21 16
-0.519073 -1.564679 22.993082 24 11 2
-0.280830 -0.264666 -0.177988 165 166 160
-0.280832 -0.264651 -0.178021 169 169 163
-0.394038 -2.248667 39.142014 29 15 9
-0.284765 -0.253833 -0.136617 70 35 10
-0.285616 -0.248381 -0.110337 157 107 58
-0.282479 -0.253059 -0.129446 164 163 154
-0.281518 -0.254413 -0.135376 95 84 64
-0.277403 -0.268052 -0.168549 186 154 115
-0.282553 -0.259567 -0.155008 171 149 136
-0.283179 -0.252388 -0.126686 72 32 3
-0.282812 -0.255143 -0.141628 91 50 24
-0.282990 -0.252680 -0.128128 86 49 24
-0.284684 -0.261430 -0.187425 122 139 154
-0.284735 -0.261482 -0.187437 5 10 18
-0.285168 -0.261249 -0.187330 95 64 30
-0.283473 -0.261888 -0.180530 178 145 104
-0.285229 -0.261301 -0.187680 109 84 64
-0.285162 -0.261296 -0.187136 174 131 89
-0.283470 -0.262104 -0.180654 51 49 28
-0.285410 -0.261563 -0.187848 15 20 30
-0.285451 -0.261576 -0.187760 118 121 129
-0.285488 -0.261670 -0.187884 6 6 13
-0.285500 -0.261639 -0.187717 2 10 13
-0.285489 -0.261717 -0.187369 20 28 30
-0.283370 -0.262412 -0.179930 201 164 112
-0.285250 -0.261799 -0.186467 130 102 70
-0.285524 -0.261801 -0.187318 16 26 37
-0.283287 -0.262804 -0.179924 236 201 166
-0.283287 -0.262804 -0.179924 236 201 166
-0.285367 -0.261951 -0.186592 31 22 21
-0.285624 -0.261901 -0.187484 5 13 22
-0.283330 -0.262560 -0.179554 175 131 76
-0.285557 -0.262102 -0.186940 48 55 64
0.180004 0.281813 0.016296 41 19 6
-0.284701 -0.262480 -0.184321 118 73 26
-0.283184 -0.263027 -0.179548 174 125 66
-0.283314 -0.262622 -0.179435 163 124 72
-0.285212 -0.262305 -0.185777 17 9 2
-0.283146 -0.263116 -0.179437 94 42 8
-0.283146 -0.263116 -0.179437 94 42 8
-0.285050 -0.262514 -0.185181 93 78 59
-0.283267 -0.262768 -0.179259 178 132 77
-0.285560 -0.262318 -0.186691 135 142 142
-0.283061 -0.263286 -0.179184 205 171 142
-0.283227 -0.262884 -0.179096 125 74 25
-0.283227 -0.262884 -0.179096 125 74 25
-0.284571 -0.262947 -0.183702 178 170 157
-0.282904 -0.263627 -0.178886 174 120 56
-0.282218 -0.265133 -0.177776 215 224 221
-0.281346 -0.265697 -0.175884 125 136 131
-0.280081 -0.266487 -0.173306 216 213 199
-0.276956 -0.267735 -0.166856 27 48 65
-0.279462 -0.263594 -0.169192 176 149 121
-0.277031 -0.268171 -0.167741 147 88 36
-0.275707 -0.268710 -0.165281 188 139 85
-0.281117 -0.266575 -0.175749 149 101 65
-0.280808 -0.265994 -0.174415 161 113 58
-0.268311 -0.271207 -0.152399 64 20 14
-0.269877 -0.271005 -0.156423 216 179 170
-0.061257 -0.236445 0.286178 16 20 27
-0.272319 -0.270285 -0.161039 172 109 38
-0.257635 -0.274153 -0.136065 113 58 47
-0.281718 -0.265254 -0.175626 114 74 36
-0.271540 -0.270564 -0.160262 176 108 37
-0.281404 -0.265523 -0.175210 121 84 29
-0.282012 -0.265022 -0.175948 90 51 12
-0.282012 -0.265022 -0.175948 90 51 12
-0.260049 -0.273662 -0.141878 210 166 163
-0.281290 -0.265630 -0.175031 191 156 115
-0.257512 -0.274268 -0.138001 124 80 70
-0.280685 -0.266084 -0.174254 168 110 31
0.245544 -0.406808 0.648639 218 171 167
-0.210049 -0.233954 0.128615 207 168 160
-0.269884 -0.270984 -0.159340 144 89 30
-0.245779 -0.276944 -0.122859 128 75 72
-0.286605 -0.264145 -0.188284 157 117 107
-0.238529 -0.278537 -0.113480 175 120 124
-0.266847 -0.271722 -0.155940 136 82 30
-0.249534 -0.275841 -0.131362 121 93 82
-0.249534 -0.275841 -0.131362 121 93 82
-0.292608 -0.261313 -0.188092 15 11 11
-0.272889 -0.269779 -0.164373 103 45 0
0.402760 -0.173040 0.948178 9 15 15
-0.308774 -0.253380 -0.076185 129 80 66
-0.278510 -0.263792 -0.169373 208 174 138
-0.246748 -0.276343 -0.128406 129 95 85
-0.270420 -0.270546 -0.161301 36 20 6
0.505949 -0.159784 1.066340 8 56 179
-0.248967 -0.275635 -0.132990 239 207 203
-0.286605 -0.264145 -0.188284 188 139 103
-0.273996 -0.261195 -0.161738 98 87 74
-0.270919 -0.259999 -0.156765 78 30 6
-0.280305 -0.266349 -0.173761 83 92 97
-0.283431 -0.262163 -0.180276 87 47 11
-0.285176 -0.262519 -0.185496 65 68 70
-0.250417 -0.275870 -0.129754 160 115 112
-0.250417 -0.275870 -0.129754 160 115 112
-0.234445 -0.279642 -0.105917 202 156 158
-0.269681 -0.270523 -0.161084 168 114 57
-0.254581 -0.273988 -0.142506 119 68 37
-0.282676 -0.261133 -0.164276 112 70 37
-0.283491 -0.261617 -0.180621 190 177 154
-0.282839 -0.263685 -0.178594 186 148 108
-0.282134 -0.264920 -0.177463 158 105 56
-0.280295 -0.266206 -0.173610 133 126 100
-0.281008 -0.265834 -0.174698 131 92 57
-0.254831 -0.274899 -0.133458 130 77 76
-0.279497 -0.266877 -0.172696 76 30 0
-0.308774 -0.253380 -0.076185 129 80 66
-0.278558 -0.267386 -0.170458 197 166 126
-0.504703 -0.423915 1.284736 133 131 153
-0.282635 -0.259381 -0.183021 126 88 33
-0.280722 -0.266050 -0.174319 85 70 49
-0.289476 -0.249330 -0.113096 176 164 146
-0.283430 -0.260841 -0.181453 73 92 98
-0.282013 -0.261568 -0.165356 112 69 24
-0.281121 -0.261971 -0.166190 115 81 47
-0.282516 -0.264710 -0.176336 156 111 43
-0.274518 -0.261258 -0.161172 211 216 222
-0.270443 -0.270888 -0.159465 172 104 33
-0.283554 -0.261620 -0.180555 160 118 69
-0.271429 -0.270542 -0.161141 233 185 124
-0.265204 -0.256512 -0.089588 50 52 38
-0.290007 -0.249223 -0.070894 149 171 163
-0.263749 -0.261098 -0.087721 123 76 24
-0.288563 -0.266067 -0.086852 128 101 52
-0.267522 -0.273429 -0.083324 70 43 13
-0.286214 -0.264057 0.242486 161 130 117
-3.882495 -8.571907 5.330168 154 101 52
-0.545157 -3.544987 1.122903 13 19 19
-0.461633 -2.186895 0.467330 138 150 143
-0.429265 -0.207719 0.399960 158 105 52
0.187254 0.100532 0.130135 33 35 29
-0.302745 -0.175570 -0.088771 13 13 8
-0.286606 -0.264145 -0.188283 73 63 53
0.656155 0.363367 0.120830 46 44 30
-0.311742 -0.138995 -0.088085 173 122 59
-0.268308 -0.121577 -0.089439 90 135 227
-0.263204 -0.261396 -0.086100 16 16 8
-0.271929 -0.248781 0.012549 5 9 14
-0.284421 -0.261047 -0.089412 177 154 115
0.114094 -0.112044 0.180086 229 154 107
-0.612248 1.424280 0.182800 198 153 144
0.023191 0.301432 0.691114 76 91 110
0.262021 -0.127696 0.078841 10 7 4
0.364147 0.620038 -0.077198 235 245 241
-0.772129 1.419990 0.227448 147 91 59
-0.294488 -0.236429 -0.085680 100 116 115
-0.294271 -0.238834 -0.085669 101 117 117
-0.294536 -0.238336 -0.085563 145 161 161
-0.274680 -0.249091 -0.088197 111 107 83
-0.298236 -0.245778 -0.085164 27 17 10
-0.298446 -0.246067 -0.084317 137 140 136
-0.291539 -0.264382 -0.086263 19 19 17
-0.253213 -0.228142 -0.054854 253 248 245
-0.257930 -0.225504 -0.062274 200 167 143
-0.262858 -0.272878 -0.086898 159 169 182
-0.262858 -0.272878 -0.086898 159 169 182
-0.296616 -0.252660 -0.088161 31 40 35
-0.297051 -0.251767 -0.085738 38 39 34
-0.206671 -0.139800 0.069728 116 88 77
-0.266421 -0.254889 -0.089620 210 143 59
-0.272316 -0.219094 -0.067980 255 255 253
-0.245483 -0.232126 -0.042077 173 175 188
-0.253291 -0.238977 -0.056677 32 25 17
-0.292406 -0.263038 -0.082992 55 60 60
-0.292406 -0.263038 -0.082992 55 60 60
-0.287167 -0.225551 -0.078076 245 249 248
-0.287167 -0.225551 -0.078076 245 249 248
-0.286120 -0.225212 -0.070201 25 26 25
-0.254161 -0.234513 -0.066324 85 39 10
-0.290946 -0.229331 -0.075395 69 58 35
-0.280526 -0.274747 -0.085641 78 93 92
-0.288284 -0.268444 -0.084397 52 63 59
-0.264655 -0.270663 -0.085128 158 122 81
-0.263058 -0.270320 -0.086540 12 21 30
-0.143527 -0.104503 0.101260 71 40 12
-0.401278 0.175729 0.015912 104 111 99
0.462914 -0.309226 0.274703 48 39 31
-0.287813 -0.263323 -0.085988 46 42 29
-0.283867 -0.261143 -0.089882 131 155 182
-0.285682 -0.261538 -0.089285 18 18 10
-19.696974 51.910439 0.352543 159 148 140
-0.357017 -0.056231 0.146468 13 19 13
-0.325603 -0.028747 0.149617 26 25 19
-0.341153 -0.043166 0.127539 31 32 27
-0.420481 -0.094462 0.038488 41 54 50
-0.364450 0.526922 0.701303 168 164 160
-0.416423 -0.090666 0.037584 42 34 25
0.250744 0.024515 0.013569 91 103 103
-0.640715 0.147575 0.047429 38 39 28
-0.181342 0.499780 0.073241 161 90 36
-0.225032 0.363775 0.052097 30 16 5
-0.286605 -0.264145 -0.188284 89 86 67
0.308154 0.266617 0.055854 66 74 77
0.036322 0.000285 0.169798 117 109 96
-0.287250 -0.013811 0.053428 33 34 29
-0.342320 0.080514 -0.016335 107 46 12
-0.215484 0.037286 0.118811 71 73 62
-0.716219 2.593873 0.750809 194 149 103
-0.218514 0.022159 0.080560 142 156 143
-0.423333 0.351932 0.045224 211 178 144
-0.580689 1.235830 0.325204 74 33 5
-0.275311 -0.213845 -0.088429 88 92 90
-0.274814 -0.215975 -0.089183 73 75 72
-0.286605 -0.264145 -0.188284 60 72 70
0.278842 0.444725 0.302623 115 109 100
0.289270 0.393155 0.267004 11 14 16
0.276805 0.451838 0.301751 56 54 49
-0.277194 -0.213808 -0.076215 44 39 33
0.261271 0.498903 0.324111 172 188 189
0.386960 -0.600572 0.201621 118 101 91
-0.275676 -0.220681 -0.083153 85 75 73
-0.341941 -0.041046 0.170697 15 20 11
-0.331512 -0.032754 0.158570 197 210 199
0.299205 0.252070 0.132697 27 28 30
0.020912 0.739583 0.391419 185 178 172
-2.923677 0.208082 6.298028 82 104 99
-0.524607 -0.008752 0.973944 28 23 20
-0.300201 -0.126782 -0.064655 50 50 52
-0.465727 0.786994 0.218909 135 76 27
0.264485 0.495132 0.345506 45 43 31
0.268350 0.491559 0.373887 30 25 19
0.291975 0.369832 0.247520 12 12 16
-0.372949 -0.069156 0.095987 83 95 89
0.008689 0.733727 0.524004 98 103 112
0.008689 0.733727 0.524004 98 103 112
0.276777 0.452627 0.312194 50 38 24
0.158863 -0.171176 0.306294 41 10 4
0.271487 0.468732 0.310794 76 68 69
-0.285883 -0.261836 -0.080317 87 48 7
0.296343 0.277409 0.185915 74 86 86
0.297880 0.285749 0.172861 27 30 29
0.240626 0.007053 0.013493 25 29 30
-23.554134 2.740116 32.775169 16 15 19
-8.402902 1.104309 12.460593 69 75 78
0.244445 0.326069 0.319020 19 24 22
0.281646 -0.018684 0.100670 5 12 13
-0.016527 0.741972 0.506111 176 168 157
0.188782 -0.043709 0.040076 140 143 136
0.171678 0.656849 0.207848 168 163 157
-0.046135 0.749276 0.500022 175 165 155
-0.046135 0.749276 0.500022 175 165 155
-54.274097 -69.809181 15.003624 150 148 125
-45.602631 -57.961658 12.315251 144 142 119
11.286804 -6.310319 1.875824 149 159 161
0.145002 0.381046 0.373763 34 19 9
-0.270947 -0.199863 -0.084729 94 101 96
-0.271174 -0.276112 -0.079328 46 66 66
-0.270448 -0.276183 -0.078879 112 88 69
0.254047 -0.395176 0.106263 60 70 61
-0.264085 -0.258113 -0.088631 17 21 32
-0.109484 -0.399171 -0.085644 88 38 9
-0.264821 -0.257014 -0.088862 3 7 8
-0.264262 -0.257922 -0.088362 10 7 6
-0.264269 -0.257871 -0.088376 9 5 4
-0.264483 -0.257572 -0.088555 200 206 209
-0.264251 -0.257946 -0.088344 226 222 219
-0.266164 -0.255287 -0.089932 49 3 1
-0.264479 -0.257581 -0.088539 10 13 16
-0.264730 -0.257159 -0.088764 18 19 16
-0.264453 -0.257626 -0.088513 13 17 18
-0.264228 -0.258017 -0.088299 9 8 11
-0.264222 -0.258047 -0.088275 195 190 192
-0.409280 -0.147967 -0.088195 226 180 136
-0.266145 -0.255293 -0.089813 89 5 12
-0.265985 -0.255466 -0.089685 34 8 7
-0.266131 -0.255301 -0.089767 149 123 116
-0.411198 -0.146752 -0.088464 117 84 64
-0.265343 -0.256243 -0.089171 146 98 90
-0.265971 -0.255472 -0.089623 141 123 112
