ply
format ascii 1.0
element vertex 1224
property float x
property float y
property float z
property uchar red
property uchar green
property uchar blue
end_header
-0.237556 0.343437 -0.015203 255 254 254
-0.237560 0.343447 -0.015203 163 120 122
-0.237560 0.343447 -0.015204 36 26 30
-0.237560 0.343447 -0.015202 210 170 171
-0.237561 0.343448 -0.015202 221 186 187
-0.237613 0.343503 -0.015138 48 25 19
-0.237562 0.343449 -0.015200 106 55 15
-0.237562 0.343449 -0.015200 106 55 15
-0.237559 0.343446 -0.015206 172 172 179
-0.237564 0.343451 -0.015194 156 161 167
-0.237566 0.343454 -0.015192 70 48 37
-0.237590 0.343481 -0.015146 78 44 27
-0.237564 0.343452 -0.015185 17 20 27
-0.237565 0.343452 -0.015182 57 63 70
-0.237568 0.343458 -0.015185 215 214 225
-0.237568 0.343458 -0.015185 215 214 225
-0.237618 0.343511 -0.015007 60 65 69
-0.237583 0.343471 -0.015117 81 84 91
-0.237644 0.343539 -0.014899 79 82 91
-0.237573 0.343467 -0.015182 1 35 122
-0.237566 0.343457 -0.015188 10 10 41
-0.237566 0.343456 -0.015189 124 90 64
-0.237890 0.343973 -0.014582 151 108 64
-0.237833 0.343935 -0.014624 201 163 122
-0.237559 0.343446 -0.015205 24 23 15
-0.237559 0.343446 -0.015205 104 56 59
-0.237559 0.343446 -0.015205 234 194 194
-0.237713 0.343595 -0.015148 196 157 117
-0.237713 0.343595 -0.015148 252 244 239
-0.237711 0.343595 -0.015147 247 244 241
-0.237559 0.343446 -0.015205 151 98 94
-0.237559 0.343446 -0.015205 158 128 91
-0.237616 0.343493 -0.015146 6 19 47
-0.237559 0.343446 -0.015205 145 102 98
-0.237559 0.343446 -0.015205 175 115 56
-0.237559 0.343446 -0.015204 165 119 118
-0.237658 0.343563 -0.015140 108 74 50
-0.237658 0.343563 -0.015140 108 74 50
-0.237644 0.343552 -0.015141 60 19 4
-0.237561 0.343448 -0.015202 221 186 187
-0.237559 0.343447 -0.015204 25 30 33
-0.237561 0.343448 -0.015197 57 57 65
-0.237606 0.343498 -0.015051 60 65 69
-0.237644 0.343539 -0.014899 79 82 91
-0.237573 0.343467 -0.015181 5 32 137
-0.237567 0.343457 -0.015187 224 220 223
-0.237566 0.343457 -0.015186 158 115 73
-0.237747 0.343743 -0.015081 228 192 151
-0.237582 0.343489 -0.015166 9 10 12
-0.237582 0.343489 -0.015166 9 10 12
-0.237561 0.343449 -0.015200 161 102 40
-0.237560 0.343448 -0.015202 148 87 34
-0.237560 0.343448 -0.015202 144 95 51
-0.237559 0.343446 -0.015205 64 31 9
-0.237559 0.343447 -0.015202 122 78 38
-0.237559 0.343447 -0.015202 122 78 38
-0.237559 0.343447 -0.015203 16 14 12
-0.237559 0.343446 -0.015206 30 22 11
-0.237559 0.343446 -0.015205 205 146 86
-0.237559 0.343446 -0.015205 205 146 86
-0.237559 0.343447 -0.015205 37 19 9
-0.237559 0.343447 -0.015205 128 116 104
-0.237559 0.343447 -0.015204 76 76 64
-0.237559 0.343447 -0.015204 124 76 38
-0.237559 0.343446 -0.015205 94 45 19
-0.237559 0.343446 -0.015205 31 35 34
-0.237559 0.343446 -0.015205 17 12 12
-0.237559 0.343446 -0.015206 16 12 9
-0.237559 0.343446 -0.015205 15 16 16
-0.237559 0.343446 -0.015205 15 16 16
-0.237559 0.343446 -0.015206 11 13 12
-0.237559 0.343446 -0.015205 8 18 15
-0.237559 0.343446 -0.015205 70 76 72
-0.237559 0.343446 -0.015206 14 23 22
-0.237559 0.343447 -0.015205 87 90 89
-0.237558 0.343446 -0.015205 47 48 49
-0.237559 0.343446 -0.015205 197 146 141
-0.237559 0.343446 -0.015205 114 74 42
-0.237560 0.343447 -0.015203 188 148 148
-0.237560 0.343447 -0.015203 64 24 7
-0.237691 0.343602 -0.015117 115 92 78
-0.237559 0.343447 -0.015205 10 17 67
-0.237559 0.343447 -0.015202 51 56 55
-0.237559 0.343446 -0.015206 200 176 150
-0.237559 0.343446 -0.015206 51 56 58
-0.237568 0.343459 -0.015197 177 125 81
-0.237559 0.343446 -0.015206 205 161 116
-0.237559 0.343446 -0.015204 95 53 18
-0.237559 0.343446 -0.015206 105 97 88
-0.237559 0.343446 -0.015205 157 114 76
-0.237559 0.343446 -0.015206 254 254 252
-0.237559 0.343446 -0.015205 110 78 56
-0.237559 0.343447 -0.015205 122 124 114
-0.237558 0.343446 -0.015205 121 115 101
-0.237559 0.343446 -0.015205 115 63 67
-0.242158 0.357332 -0.012167 57 29 9
-0.237559 0.343447 -0.015204 70 47 32
-0.237559 0.343447 -0.015204 139 135 121
-0.237558 0.343446 -0.015204 131 132 117
-0.237558 0.343446 -0.015205 15 21 15
-0.237559 0.343446 -0.015205 158 100 53
-0.237559 0.343446 -0.015205 19 11 5
-0.237559 0.343446 -0.015205 123 87 57
-0.237559 0.343446 -0.015205 125 137 162
-0.237559 0.343446 -0.015205 52 46 62
-0.237555 0.343442 -0.015203 39 26 17
-0.237559 0.343446 -0.015205 28 16 15
-0.237559 0.343446 -0.015205 101 101 120
-0.237559 0.343447 -0.015204 134 85 38
-0.237559 0.343445 -0.015205 169 118 63
-0.237558 0.343444 -0.015204 7 28 57
-0.237559 0.343446 -0.015205 101 49 25
-0.237559 0.343446 -0.015205 101 49 25
-0.237475 0.343348 -0.015137 12 11 8
-0.237558 0.343439 -0.015205 84 75 62
-0.237559 0.343444 -0.015204 41 21 16
-0.237260 0.343074 -0.014956 165 166 160
-0.237318 0.343145 -0.015004 169 169 163
-0.237558 0.343443 -0.015204 29 15 9
-0.237558 0.343443 -0.015204 117 73 40
-0.237559 0.343439 -0.015205 70 35 10
-0.237559 0.343443 -0.015205 157 107 58
-0.237559 0.343443 -0.015205 164 163 154
-0.237559 0.343443 -0.015204 250 245 237
-0.237563 0.343450 -0.015203 186 154 115
-0.237559 0.343443 -0.015205 72 32 3
-0.237559 0.343442 -0.015205 91 50 24
-0.237559 0.343443 -0.015205 86 49 24
-0.237559 0.343444 -0.015205 98 67 37
-0.237560 0.343452 -0.015203 7 31 59
-0.237560 0.343448 -0.015201 122 139 154
-0.237560 0.343448 -0.015201 5 10 18
-0.237559 0.343448 -0.015201 95 64 30
-0.237559 0.343447 -0.015200 178 145 104
-0.237559 0.343448 -0.015201 109 84 64
-0.237559 0.343448 -0.015201 174 131 89
-0.237559 0.343447 -0.015200 51 49 28
-0.237559 0.343448 -0.015201 141 112 89
-0.237559 0.343448 -0.015201 118 121 129
-0.237560 0.343452 -0.015203 134 89 66
-0.237559 0.343448 -0.015201 6 6 13
-0.237559 0.343448 -0.015201 2 10 13
-0.237559 0.343448 -0.015201 20 28 30
-0.237559 0.343447 -0.015200 201 164 112
-0.237559 0.343448 -0.015201 130 102 70
-0.237559 0.343448 -0.015201 16 26 37
-0.237559 0.343447 -0.015200 131 90 43
-0.237559 0.343447 -0.015200 236 201 166
-0.237559 0.343447 -0.015200 236 201 166
-0.237559 0.343448 -0.015201 31 22 21
-0.237559 0.343448 -0.015201 57 74 91
-0.237559 0.343447 -0.015200 175 131 76
-0.237559 0.343448 -0.015201 48 55 64
-0.237560 0.343452 -0.015203 41 19 6
-0.237559 0.343448 -0.015201 118 73 26
-0.237559 0.343447 -0.015200 174 125 66
-0.237559 0.343447 -0.015200 163 124 72
-0.237559 0.343448 -0.015201 17 9 2
-0.237559 0.343447 -0.015200 94 42 8
-0.237559 0.343447 -0.015200 94 42 8
-0.237559 0.343448 -0.015201 93 78 59
-0.237559 0.343447 -0.015200 178 132 77
-0.237559 0.343448 -0.015201 135 142 142
-0.237559 0.343447 -0.015200 205 171 142
-0.237559 0.343447 -0.015200 125 74 25
-0.237559 0.343447 -0.015200 125 74 25
-0.237559 0.343448 -0.015201 178 170 157
-0.237559 0.343447 -0.015200 174 120 56
-0.237558 0.343447 -0.015200 144 94 39
-0.237559 0.343448 -0.015201 215 224 221
-0.237559 0.343448 -0.015201 125 136 131
-0.237559 0.343448 -0.015201 216 213 199
-0.237559 0.343449 -0.015201 27 48 65
-0.237560 0.343442 -0.015204 176 149 121
-0.237559 0.343448 -0.015201 147 88 36
-0.237559 0.343448 -0.015201 188 139 85
-0.237559 0.343440 -0.015201 149 101 65
-0.237559 0.343446 -0.015205 137 135 124
-0.237558 0.343448 -0.015201 216 179 170
-0.237558 0.343448 -0.015200 172 109 38
-0.237558 0.343447 -0.015199 164 113 40
-0.237558 0.343449 -0.015201 113 58 47
-0.237558 0.343447 -0.015199 114 74 36
-0.237558 0.343448 -0.015200 176 108 37
-0.237558 0.343447 -0.015199 121 84 29
-0.237558 0.343447 -0.015199 90 51 12
-0.237558 0.343447 -0.015199 90 51 12
-0.237558 0.343449 -0.015201 210 166 163
-0.237558 0.343447 -0.015199 191 156 115
-0.237558 0.343449 -0.015201 124 80 70
-0.237558 0.343447 -0.015199 168 110 31
-0.237558 0.343443 -0.015202 207 168 160
-0.237558 0.343448 -0.015200 144 89 30
-0.237558 0.343449 -0.015201 128 75 72
-0.237557 0.343450 -0.015201 222 189 184
-0.237558 0.343449 -0.015201 175 120 124
-0.237559 0.343446 -0.015206 169 110 49
-0.237558 0.343448 -0.015200 136 82 30
-0.237558 0.343448 -0.015200 121 93 82
-0.237558 0.343448 -0.015200 121 93 82
-0.237558 0.343447 -0.015200 103 45 0
-0.237559 0.343446 -0.015205 9 15 15
-0.237559 0.343446 -0.015205 129 80 66
-0.237560 0.343442 -0.015203 208 174 138
-0.237557 0.343448 -0.015200 129 95 85
-0.237557 0.343448 -0.015200 36 20 6
-0.237559 0.343446 -0.015205 8 56 179
-0.237559 0.343446 -0.015206 170 128 82
-0.237564 0.343428 -0.015194 98 87 74
-0.237558 0.343441 -0.015188 87 47 11
-0.237564 0.343439 -0.015190 160 115 112
-0.237564 0.343440 -0.015190 202 156 158
-0.237561 0.343440 -0.015189 168 114 57
-0.237562 0.343441 -0.015191 119 68 37
-0.237559 0.343448 -0.015204 112 70 37
-0.237557 0.343438 -0.015187 186 148 108
-0.237560 0.343438 -0.015190 158 105 56
-0.237539 0.343444 -0.015183 162 118 106
-0.237561 0.343440 -0.015204 133 126 100
-0.237562 0.343443 -0.015195 130 77 76
-0.237557 0.343441 -0.015190 76 30 0
-0.237559 0.343446 -0.015205 129 80 66
-0.237641 0.343564 -0.015055 212 174 129
-0.237501 0.343571 -0.014951 85 70 49
-0.237558 0.343439 -0.015205 176 164 146
-0.237559 0.343449 -0.015204 112 69 24
-0.237558 0.343456 -0.015204 115 81 47
-0.237601 0.343554 -0.015105 31 32 39
-0.237684 0.343471 -0.015012 211 216 222
-0.237601 0.342599 -0.014233 93 51 12
-0.237616 0.342827 -0.014200 8 17 12
-0.237559 0.343447 -0.015205 143 97 50
-0.237659 0.343596 -0.014987 172 104 33
-0.237674 0.343645 -0.015028 160 118 69
-0.237562 0.343448 -0.015203 168 184 183
-0.237559 0.343425 -0.015202 96 64 29
-0.237558 0.343434 -0.015202 58 20 1
-0.237558 0.343435 -0.015202 106 103 82
-0.237562 0.343448 -0.015203 17 16 13
-0.237556 0.343434 -0.015199 75 29 6
-0.237563 0.343448 -0.015202 186 137 81
-0.237561 0.343427 -0.015201 95 121 130
-0.237559 0.343425 -0.015202 91 55 27
-0.237561 0.343427 -0.015202 96 79 64
-0.237541 0.343408 -0.015196 39 57 89
-0.237559 0.343447 -0.015203 93 79 79
-0.237569 0.343456 -0.015203 171 113 48
-0.237604 0.343481 -0.015110 118 133 125
-0.237498 0.343364 -0.015029 161 130 117
-0.237363 0.343115 -0.015042 154 101 52
-0.237523 0.343404 -0.015203 13 19 19
-0.237551 0.343568 -0.015074 98 89 54
-0.237559 0.343416 -0.015198 177 200 218
-0.237563 0.343448 -0.015203 138 150 143
-0.239870 0.350273 -0.015106 179 152 143
-0.240149 0.327652 0.001630 175 156 139
-0.237558 0.343448 -0.015199 127 83 34
-0.237559 0.343446 -0.015206 208 164 165
-0.237557 0.343447 -0.015203 70 33 22
-0.237557 0.343447 -0.015203 178 141 135
-0.237557 0.343447 -0.015203 224 187 181
-0.237557 0.343446 -0.015203 124 71 41
-0.237556 0.343448 -0.015203 162 121 79
-0.237555 0.343450 -0.015203 70 58 53
-0.237557 0.343446 -0.015202 13 13 8
-0.237556 0.343447 -0.015203 144 159 159
-0.237529 0.343490 -0.015198 11 50 189
-0.237553 0.343452 -0.015202 184 202 216
-0.237556 0.343446 -0.015203 55 65 61
-0.237557 0.343446 -0.015203 53 64 60
-0.237557 0.343446 -0.015203 66 77 73
-0.237491 0.343549 -0.015190 0 37 157
-0.237552 0.343452 -0.015202 157 104 52
-0.237556 0.343446 -0.015203 142 105 57
-0.237556 0.343446 -0.015203 145 100 48
-0.238516 0.340493 -0.014214 46 44 30
-0.237558 0.343451 -0.015199 26 21 15
-0.237557 0.343446 -0.015203 173 122 59
-0.237539 0.343476 -0.015200 90 135 227
-0.237558 0.343447 -0.015202 163 101 28
-0.237534 0.343483 -0.015199 9 49 176
-0.237558 0.343453 -0.015198 79 65 54
-0.237557 0.343450 -0.015199 124 74 15
-0.237557 0.343446 -0.015202 65 82 89
-0.237981 0.343796 -0.013973 76 91 110
432.637878 -678.172729 0.559304 150 172 169
-0.237563 0.343439 -0.015192 86 31 0
-0.237564 0.343444 -0.015185 128 77 42
-0.237571 0.343462 -0.015173 73 40 17
-0.237556 0.343468 -0.015170 112 110 98
-0.237558 0.343456 -0.015192 49 27 5
-0.245053 0.352623 -0.012088 145 161 161
-0.237500 0.343569 -0.015095 19 19 17
-0.237548 0.343439 -0.015202 166 163 144
-0.237548 0.343439 -0.015202 166 163 144
-0.237565 0.343436 -0.015186 66 19 1
-0.237626 0.343519 -0.015130 134 122 98
-0.237609 0.343569 -0.015039 198 169 136
-0.237552 0.343453 -0.015188 125 91 60
-0.237570 0.343457 -0.015192 7 34 191
-0.237567 0.343458 -0.015188 39 67 157
-0.237560 0.343468 -0.015179 172 126 78
-0.237548 0.343475 -0.015180 32 52 43
-0.237547 0.343439 -0.015202 139 143 129
-0.237564 0.343436 -0.015187 85 39 10
-0.237549 0.343450 -0.015199 123 134 117
-0.237545 0.343466 -0.015186 46 66 57
-0.237547 0.343450 -0.015198 117 116 98
-0.237546 0.343440 -0.015201 115 109 87
-0.270971 0.123091 0.215113 78 67 47
-0.237539 0.343448 -0.015191 78 93 92
-0.245320 0.327905 -0.012929 106 98 77
-0.237510 0.343514 -0.015133 52 63 59
-0.237563 0.343437 -0.015195 160 98 50
-0.237536 0.343590 -0.014849 103 100 95
-0.237599 0.343743 -0.014401 104 58 37
-0.237554 0.343756 -0.014377 48 39 31
-0.237626 0.343422 -0.015079 105 68 30
-0.237569 0.343511 -0.015151 43 48 43
-0.237584 0.343565 -0.015061 202 169 128
-0.237679 0.343926 -0.014419 40 20 11
-0.237615 0.343526 -0.014859 184 188 200
-0.237566 0.343532 -0.015050 57 64 57
-0.237563 0.343535 -0.015031 131 155 182
-0.237487 0.343551 -0.013983 98 71 60
-0.237537 0.343616 -0.014788 99 94 88
-0.237539 0.343450 -0.015163 213 210 205
-0.237775 0.343780 -0.014604 94 51 51
-0.237720 0.343732 -0.014707 140 89 90
-0.238093 0.343707 -0.014648 224 189 193
-0.237677 0.343785 -0.014642 173 113 64
-0.237761 0.343561 -0.015077 10 15 15
-0.238200 0.343590 -0.015011 161 90 36
-0.238066 0.343668 -0.014748 173 177 185
-0.243482 0.349662 -0.011762 20 20 21
-0.238032 0.343671 -0.014749 203 195 189
-0.237534 0.343694 -0.014660 103 96 88
-0.244351 0.350292 -0.011315 61 42 28
-0.243695 0.350109 -0.011435 22 23 27
-0.237534 0.343524 -0.015002 18 22 23
-0.240689 0.349415 -0.011795 158 152 144
-0.240735 0.349476 -0.011736 47 33 26
-0.253361 0.465342 0.051012 91 103 103
-0.237692 0.349787 -0.009940 56 57 51
-0.243869 0.350472 -0.011188 38 46 48
-0.237528 0.343615 -0.014857 145 142 137
-0.237562 0.343464 -0.015190 214 178 150
-0.237560 0.343457 -0.015195 108 54 22
-0.237534 0.345163 -0.012947 111 103 93
-0.237569 0.343641 -0.015040 13 13 15
-0.237566 0.343563 -0.015105 81 88 82
-0.237824 0.343792 -0.014640 18 21 15
-0.237638 0.345042 -0.013506 73 75 72
-0.244391 0.487395 0.139149 88 92 90
-0.237719 0.343691 -0.014747 215 158 161
-0.236719 0.342974 -0.014300 149 148 136
-0.236721 0.343819 -0.014755 37 37 34
-0.238143 0.344108 -0.014534 214 178 181
-0.237624 0.343666 -0.014686 100 58 23
-0.238143 0.344174 -0.014547 213 181 184
-0.236657 0.344227 -0.014807 103 105 98
-0.236341 0.345336 -0.014859 11 15 16
-0.236727 0.344068 -0.014798 42 43 41
-0.236873 0.343519 -0.014702 75 84 93
-0.236856 0.343631 -0.014735 155 177 184
-0.237552 0.343437 -0.015181 111 56 25
-0.238056 0.343703 -0.014672 218 175 184
-0.236809 0.343116 -0.014184 63 80 89
-0.244480 0.256363 0.016089 118 101 91
-0.237179 0.342988 -0.014753 93 33 1
-0.238442 0.349730 -0.014724 4 28 143
-0.244238 0.349862 -0.011536 32 28 19
-0.238037 0.343657 -0.014791 3 13 44
-0.237703 0.343714 -0.014128 23 10 13
-0.244316 0.350119 -0.011429 208 216 205
-0.238054 0.343983 -0.014191 31 38 40
-0.243585 0.349931 -0.011606 201 206 199
-0.239025 0.336392 -0.015023 9 13 16
-0.238079 0.343594 -0.015017 30 16 5
-0.237633 0.343738 -0.014132 21 12 9
-0.237520 0.344932 -0.013259 7 5 3
-0.236869 0.343226 -0.014120 152 153 147
-0.237630 0.346192 -0.010499 149 86 32
-0.236431 0.347115 -0.014988 59 64 84
-0.237954 0.343972 -0.014336 18 22 19
-0.237929 0.349625 -0.007983 135 76 27
-0.237569 0.343505 -0.015155 111 63 30
-0.237572 0.343607 -0.015077 66 74 77
-0.237567 0.343498 -0.015161 188 154 123
-0.238443 0.330092 -0.013885 28 23 20
-0.237562 0.343490 -0.015167 20 21 21
-0.237559 0.343509 -0.015140 175 173 170
-0.236126 0.346146 -0.014880 4 7 10
-0.237552 0.343434 -0.015193 154 103 70
-0.236937 0.343271 -0.014495 78 80 77
-0.236475 0.344193 -0.014775 23 28 24
-0.237559 0.343446 -0.015206 35 28 25
-0.237559 0.343446 -0.015206 56 58 46
-0.237575 0.343681 -0.015082 92 99 93
-0.237489 0.343522 -0.015048 119 121 127
-0.229765 0.350922 -0.003122 86 91 87
-0.231284 0.349739 -0.004564 176 168 157
-0.236382 0.347736 -0.011668 50 38 24
-0.237624 0.343703 -0.014599 201 156 137
-0.236313 0.348065 -0.011283 76 68 69
-0.237567 0.343476 -0.015091 87 48 7
-0.238515 0.348055 -0.012509 27 30 29
-0.243571 0.350021 -0.011526 25 29 30
-0.237484 0.343553 -0.014893 16 15 19
-0.237567 0.343523 -0.015141 5 12 13
-0.237515 0.343597 -0.014980 168 163 157
-0.231024 0.349792 -0.003963 175 165 155
-0.231024 0.349792 -0.003963 175 165 155
-0.237551 0.343430 -0.015201 150 140 131
-0.237521 0.343440 -0.015085 132 128 127
-0.237566 0.343518 -0.015145 94 101 96
-0.238388 0.343158 -0.014801 15 18 25
-0.237731 0.343399 -0.015091 88 38 9
-0.238310 0.343160 -0.015087 3 7 8
-0.238691 0.343011 -0.015042 18 19 16
-0.238383 0.343091 -0.015077 161 133 104
-0.238397 0.343078 -0.015075 175 148 111
-0.238656 0.342966 -0.015043 170 148 111
-0.247314 0.339151 -0.013980 164 147 135
-0.238389 0.343075 -0.015075 232 172 113
-0.243068 0.338985 -0.013652 185 110 55
-0.267444 0.330002 -0.011487 121 42 19
-0.238151 0.343142 -0.015101 214 214 213
-0.238784 0.342802 -0.015017 242 249 255
-0.643433 0.110213 0.038731 188 191 198
-0.237742 0.343375 -0.015064 190 221 226
-0.237734 0.343383 -0.015078 245 235 225
-0.237379 0.343467 -0.015077 226 181 124
-0.237722 0.343386 -0.015089 190 215 219
-0.237713 0.343393 -0.015103 121 125 116
-0.237764 0.343377 -0.015021 178 194 194
-0.237712 0.343388 -0.015099 126 142 142
-0.237726 0.343373 -0.015072 120 136 124
-0.237654 0.343412 -0.015101 154 171 164
-0.237698 0.343485 -0.015099 182 205 201
-0.237202 0.343516 -0.015089 20 25 29
-0.237676 0.343324 -0.015103 142 135 128
-0.237559 0.343445 -0.015205 123 148 192
-0.239216 0.342976 -0.014941 158 154 155
-0.239216 0.342976 -0.014941 158 154 155
-0.240357 0.342150 -0.014829 203 149 98
-0.239203 0.342725 -0.014976 165 97 48
-0.238683 0.343870 -0.015040 65 56 40
-0.238697 0.343139 -0.014892 47 18 13
-0.238161 0.343273 -0.015056 113 109 102
-0.238831 0.343103 -0.014875 129 117 113
-0.239342 0.342868 -0.014964 215 219 218
-0.263262 0.338516 0.016447 109 141 140
-0.260780 0.334048 0.016136 16 12 4
-0.260829 0.333601 0.016306 133 94 56
-0.260553 0.333908 0.015945 161 140 133
-0.239228 0.343262 -0.013614 164 136 3
-0.237654 0.343445 -0.015097 62 46 0
-0.239533 0.343243 -0.013335 243 180 66
-0.254189 0.342101 -0.000773 220 224 234
-0.362616 0.334330 0.091834 162 15 15
-0.238825 0.343310 -0.013926 237 50 52
-0.238825 0.343310 -0.013926 237 50 52
-0.238755 0.343316 -0.013986 252 82 79
-0.238919 0.343307 -0.013825 255 121 107
-0.238919 0.343307 -0.013825 255 121 107
-0.239004 0.343306 -0.013723 213 17 18
-0.237617 0.343424 -0.015086 177 137 94
-0.240277 0.343233 -0.012554 40 11 15
-0.249313 0.342778 -0.004595 212 88 85
-0.240285 0.343236 -0.012526 229 184 190
-0.237623 0.343422 -0.015081 84 50 19
-0.237651 0.343422 -0.015060 221 180 136
-0.260025 0.342352 0.005035 162 42 30
-0.241831 0.343165 -0.011078 94 60 34
-0.250227 0.342782 -0.003565 140 55 26
-0.237602 0.343423 -0.015101 7 8 41
-0.237625 0.343422 -0.015080 241 244 245
-0.237596 0.343424 -0.015110 5 27 92
-0.237597 0.343423 -0.015107 138 152 165
-0.237633 0.343421 -0.015073 81 46 24
-0.237618 0.343421 -0.015088 19 21 63
-0.237636 0.343420 -0.015072 197 155 110
-0.237628 0.343420 -0.015080 140 148 151
-0.237632 0.343420 -0.015076 117 95 77
-0.237637 0.343420 -0.015072 104 85 64
-0.238384 0.343358 -0.014197 236 245 250
-0.237635 0.343420 -0.015074 140 122 104
-0.237630 0.343420 -0.015078 214 227 235
-0.237609 0.343420 -0.015097 32 70 128
-0.237600 0.343421 -0.015109 192 215 239
-0.237636 0.343425 -0.015086 166 178 185
-0.238463 0.343353 -0.014099 97 62 68
-0.237636 0.343426 -0.015087 113 101 94
-0.237616 0.343420 -0.015091 107 117 139
-0.238389 0.343358 -0.014175 140 112 73
-0.237624 0.343420 -0.015085 149 171 195
-0.237634 0.343419 -0.015076 137 136 130
-0.237615 0.343419 -0.015092 30 45 78
-0.237634 0.343419 -0.015075 245 245 247
-0.237638 0.343419 -0.015073 198 212 226
-0.237636 0.343424 -0.015087 104 89 78
-0.237639 0.343419 -0.015073 114 111 108
-0.237604 0.343419 -0.015105 1 61 201
-0.237637 0.343426 -0.015088 230 219 207
-0.237603 0.343419 -0.015107 8 50 177
-0.237637 0.343418 -0.015075 112 94 78
-0.237632 0.343418 -0.015080 151 166 195
-0.237636 0.343424 -0.015087 246 241 238
-0.237639 0.343427 -0.015089 46 130 244
-0.237636 0.343424 -0.015088 100 79 65
-0.237606 0.343418 -0.015105 10 43 148
-0.237605 0.343418 -0.015107 2 42 173
-0.237619 0.343417 -0.015091 34 48 87
-0.237606 0.343417 -0.015106 122 154 222
-0.237638 0.343418 -0.015076 194 187 182
-0.237607 0.343417 -0.015104 193 222 246
-0.237646 0.343418 -0.015069 200 160 111
-0.237609 0.343417 -0.015101 18 35 102
-0.237607 0.343417 -0.015106 7 27 115
-0.237609 0.343417 -0.015102 179 207 245
-0.237621 0.343417 -0.015090 9 15 54
-0.237607 0.343417 -0.015105 176 196 210
-0.237607 0.343417 -0.015105 176 196 210
-0.237606 0.343417 -0.015109 129 149 162
-0.237611 0.343416 -0.015100 175 182 209
-0.237626 0.343416 -0.015087 12 12 14
-0.237644 0.343417 -0.015073 70 42 20
-0.237609 0.343415 -0.015106 72 38 14
-0.237608 0.343416 -0.015109 84 48 16
-0.237632 0.343415 -0.015083 138 160 182
-0.237634 0.343415 -0.015082 44 47 55
-0.237698 0.343423 -0.015049 24 16 13
-0.237698 0.343423 -0.015049 24 16 13
-0.237631 0.343413 -0.015087 9 13 12
-0.237669 0.343417 -0.015060 40 11 2
-0.237644 0.343413 -0.015078 25 28 14
-0.237697 0.343427 -0.015077 16 6 4
-0.237649 0.343413 -0.015074 183 139 88
-0.237646 0.343413 -0.015076 85 40 6
-0.237645 0.343412 -0.015078 59 27 4
-0.237691 0.343425 -0.015082 24 16 6
-0.237662 0.343419 -0.015100 68 22 0
-0.237656 0.343412 -0.015070 181 135 79
-0.237677 0.343416 -0.015058 210 163 115
-0.238507 0.343192 -0.012391 213 190 171
-0.237639 0.343416 -0.015093 123 146 151
-0.237639 0.343415 -0.015093 115 129 136
-0.237696 0.343420 -0.015051 7 12 9
-0.237715 0.343425 -0.015046 63 45 25
-0.237722 0.343427 -0.015045 20 25 29
-0.237663 0.343410 -0.015069 126 78 33
-0.237663 0.343410 -0.015070 81 47 19
-0.237684 0.343415 -0.015058 201 153 104
-0.237687 0.343414 -0.015058 31 9 1
-0.237689 0.343414 -0.015057 21 25 36
-0.237685 0.343412 -0.015060 13 20 30
-0.237734 0.343429 -0.015043 111 126 133
-0.237675 0.343407 -0.015067 176 133 90
-0.237651 0.343414 -0.015099 179 191 193
-0.237691 0.343413 -0.015058 24 32 42
-0.237688 0.343411 -0.015060 119 128 135
-0.237660 0.343402 -0.015107 91 90 85
-0.237662 0.343403 -0.015107 93 94 91
-0.237649 0.343397 -0.015100 129 80 67
-0.237649 0.343397 -0.015099 112 80 83
-0.237654 0.343398 -0.015089 108 70 59
-0.237664 0.343403 -0.015106 26 34 43
-0.237656 0.343400 -0.015108 41 6 18
-0.237653 0.343399 -0.015108 65 49 25
-0.237659 0.343401 -0.015108 85 81 86
-0.237659 0.343401 -0.015108 85 81 86
-0.237657 0.343400 -0.015108 89 85 89
-0.237657 0.343400 -0.015108 89 85 89
-0.237664 0.343402 -0.015107 58 60 57
-0.237655 0.343414 -0.015101 124 124 119
-0.237654 0.343411 -0.015100 99 107 109
-0.237698 0.343412 -0.015056 84 95 103
-0.237702 0.343413 -0.015055 5 18 27
-0.237656 0.343403 -0.015098 107 108 112
-0.237710 0.343415 -0.015052 3 15 23
-0.237656 0.343402 -0.015098 6 9 12
-0.238038 0.343588 -0.014721 155 168 174
-0.238832 0.342983 -0.014360 157 141 121
-0.237625 0.343420 -0.015083 20 31 85
-0.237716 0.343419 -0.015049 60 36 4
-0.237627 0.343421 -0.015078 247 251 251
-0.237627 0.343421 -0.015079 130 141 137
-0.237976 0.343447 -0.014871 14 26 29
-0.237671 0.343416 -0.015060 64 29 1
-0.237744 0.343464 -0.014992 44 74 61
-0.237565 0.343456 -0.015081 146 116 85
-0.237649 0.343432 -0.015051 205 162 107
-0.250083 0.333867 0.005822 219 180 139
-0.241302 0.338845 -0.004721 136 172 172
-0.246564 0.336460 0.010236 81 76 64
-0.251589 0.338155 0.020897 220 197 165
-0.237714 0.343426 -0.015067 8 8 8
-0.257439 0.313530 0.023682 124 129 131
-0.237681 0.343574 -0.015067 252 253 253
-0.237669 0.343557 -0.015062 82 106 173
-0.237655 0.343550 -0.015045 116 72 35
-0.237615 0.343568 -0.015050 45 61 77
-0.237613 0.343567 -0.015059 38 38 48
-0.237608 0.343567 -0.015058 7 17 38
-0.237606 0.343567 -0.015060 26 39 59
-0.237628 0.343520 -0.015091 43 21 9
-0.237628 0.343520 -0.015091 43 21 9
-0.237628 0.343520 -0.015091 86 61 46
-0.237606 0.343567 -0.015060 21 34 54
-0.237608 0.343566 -0.015069 89 120 53
-0.237605 0.343567 -0.015060 115 138 166
-0.237602 0.343568 -0.015053 8 18 38
-0.237607 0.343565 -0.015071 110 146 77
-0.237603 0.343567 -0.015054 18 19 44
-0.237601 0.343568 -0.015052 37 61 85
-0.237602 0.343567 -0.015056 16 34 57
-0.237602 0.343567 -0.015058 13 29 51
-0.237600 0.343568 -0.015052 9 20 44
-0.237602 0.343567 -0.015061 6 31 48
-0.237601 0.343567 -0.015059 107 128 152
-0.237604 0.343566 -0.015069 72 106 30
-0.237600 0.343567 -0.015058 22 40 64
-0.237600 0.343567 -0.015058 75 88 114
-0.237600 0.343567 -0.015057 14 25 52
-0.237598 0.343567 -0.015058 14 26 54
-0.237598 0.343567 -0.015055 95 116 143
-0.237601 0.343566 -0.015067 14 10 4
-0.237598 0.343567 -0.015059 18 36 60
-0.237601 0.343565 -0.015070 95 131 62
-0.237601 0.343565 -0.015070 42 63 17
-0.237594 0.343567 -0.015053 78 96 119
-0.237595 0.343566 -0.015060 15 31 56
-0.237595 0.343566 -0.015064 24 13 11
-0.237593 0.343566 -0.015060 15 30 53
-0.237591 0.343567 -0.015053 5 28 55
-0.237592 0.343566 -0.015058 78 94 117
-0.237594 0.343566 -0.015064 175 141 107
-0.237594 0.343566 -0.015066 38 25 12
-0.237592 0.343566 -0.015060 20 36 59
-0.237593 0.343566 -0.015066 140 116 91
-0.237590 0.343566 -0.015054 83 98 119
-0.237612 0.343479 -0.015103 111 101 89
-0.237591 0.343566 -0.015060 16 31 55
-0.237590 0.343566 -0.015057 80 95 118
-0.237590 0.343566 -0.015057 80 95 118
-0.237590 0.343566 -0.015060 8 20 36
-0.237609 0.343480 -0.015105 167 174 173
-0.237610 0.343481 -0.015105 195 166 135
-0.237609 0.343482 -0.015105 146 112 81
-0.237609 0.343483 -0.015105 140 106 68
-0.237607 0.343480 -0.015107 173 159 141
-0.237607 0.343478 -0.015105 80 65 41
-0.237580 0.343564 -0.015069 112 89 69
-0.237606 0.343480 -0.015108 201 177 151
-0.237577 0.343563 -0.015065 32 12 0
-0.237577 0.343563 -0.015065 25 13 15
-0.237604 0.343513 -0.015095 98 92 92
-0.237576 0.343563 -0.015070 31 17 10
-0.237604 0.343511 -0.015097 91 87 84
-0.237604 0.343511 -0.015097 91 87 84
-0.237604 0.343480 -0.015110 112 135 136
-0.237603 0.343509 -0.015098 141 140 137
-0.237600 0.343512 -0.015097 84 80 77
-0.237655 0.343487 -0.015089 19 14 11
-0.237640 0.343562 -0.015049 219 193 167
-0.237610 0.343567 -0.015057 108 125 152
-0.237608 0.343567 -0.015059 38 54 78
-0.237598 0.343567 -0.015058 14 26 54
-0.237591 0.343566 -0.015056 54 70 86
-0.237572 0.343561 -0.015064 198 168 134
-0.237637 0.343567 -0.015060 115 70 29
-0.237667 0.343551 -0.015059 31 49 100
-0.237645 0.343479 -0.015086 142 157 163
-0.237668 0.343496 -0.015098 238 125 131
-0.237660 0.343556 -0.015057 40 53 62
-0.237647 0.343554 -0.015034 71 40 18
-0.237639 0.343568 -0.015062 48 26 14
-0.240640 0.330016 -0.008323 81 80 84
-0.253756 0.474272 0.066694 192 187 176
-0.239251 0.334994 -0.010996 106 97 92
-0.237567 0.343525 -0.015035 160 207 115
-0.237620 0.343509 -0.015106 68 64 45
-0.237584 0.343513 -0.015066 46 45 45
-0.237586 0.343525 -0.015078 8 16 18
-0.237622 0.343510 -0.015106 191 201 200
-0.237572 0.343530 -0.015098 222 207 198
-0.237573 0.343528 -0.015104 91 53 16
-0.237554 0.343568 -0.015072 227 245 253
-0.237554 0.343568 -0.015072 227 245 253
-0.237551 0.343572 -0.015073 32 33 33
-0.237550 0.343573 -0.015073 193 164 114
-0.237585 0.343511 -0.015080 52 54 49
-0.237563 0.343551 -0.015047 82 64 40
-0.237608 0.343535 -0.015079 41 55 58
-0.237620 0.343509 -0.015106 186 167 105
-0.237559 0.343503 -0.015079 153 137 121
-0.237587 0.343513 -0.015081 19 2 0
-0.237565 0.343527 -0.015029 123 150 169
-0.237565 0.343528 -0.015029 87 115 139
-0.237564 0.343535 -0.015035 25 43 65
-0.237619 0.343509 -0.015107 244 219 170
-0.237348 0.339360 -0.013889 18 14 9
-0.237523 0.343124 -0.014634 122 115 99
-0.237392 0.342767 -0.014855 116 85 68
-0.237190 0.342953 -0.015075 20 21 20
-0.237006 0.342439 -0.014328 246 244 248
-0.237515 0.343384 -0.015097 151 148 146
-0.237539 0.343071 -0.014748 203 187 159
-0.234439 0.339329 -0.011171 224 175 132
-0.237394 0.342884 -0.014203 135 70 26
-0.237517 0.342830 -0.014593 6 15 11
-0.236895 0.335860 0.000887 40 28 13
-0.250637 0.241129 0.028724 9 17 29
-0.237837 0.343563 -0.014757 82 67 58
-0.238388 0.343791 -0.014167 35 11 3
-0.238387 0.343782 -0.014194 106 100 97
-0.238390 0.343765 -0.014235 191 198 204
-0.238387 0.343775 -0.014215 184 182 187
-0.238379 0.343767 -0.014248 13 18 25
-0.237629 0.343506 -0.015085 134 144 154
-0.238351 0.343769 -0.014275 33 38 46
-0.238344 0.343771 -0.014284 236 229 220
-0.238344 0.343771 -0.014284 236 229 220
-0.238330 0.343812 -0.014197 87 50 28
-0.237628 0.343502 -0.015096 139 147 158
-0.241030 0.343999 -0.012839 147 99 61
-0.238287 0.343756 -0.014379 68 23 19
-0.237628 0.343500 -0.015102 151 160 167
-0.238280 0.343786 -0.014317 234 232 235
-0.238722 0.343434 -0.015061 193 155 121
-0.238280 0.343949 -0.013984 142 99 54
-0.237628 0.343503 -0.015099 60 76 91
-0.238243 0.343794 -0.014335 241 240 253
-0.238398 0.343589 -0.014857 149 105 63
-0.238038 0.343800 -0.014370 63 20 0
-0.238233 0.343759 -0.014426 91 30 28
-0.237559 0.343446 -0.015205 219 247 252
-0.238231 0.343741 -0.014476 74 26 17
-0.238231 0.343741 -0.014476 74 26 17
-0.238226 0.343748 -0.014459 97 46 46
-0.238222 0.343772 -0.014404 37 13 10
-0.238235 0.343949 -0.014038 108 56 20
-0.238235 0.343949 -0.014038 108 56 20
-0.238622 0.343470 -0.015095 101 52 19
-0.238220 0.343698 -0.014599 11 12 11
-0.238219 0.344100 -0.013813 35 43 45
-0.238175 0.343729 -0.014548 118 63 70
-0.238175 0.343729 -0.014548 118 63 70
-0.238175 0.343699 -0.014624 173 124 120
-0.238169 0.343746 -0.014509 76 23 25
-0.238156 0.343694 -0.014651 137 90 88
-0.238156 0.343690 -0.014661 208 167 169
-0.238132 0.343694 -0.014663 87 37 27
-0.238160 0.344042 -0.013968 19 5 0
-0.238161 0.344096 -0.013883 77 46 18
-0.238141 0.343933 -0.014166 172 127 86
-0.237623 0.343514 -0.015100 129 85 50
-0.238118 0.343728 -0.014584 217 166 175
-0.254170 0.336035 -0.009674 234 247 248
-0.238138 0.343954 -0.014136 114 56 19
-0.237623 0.343515 -0.015101 131 98 67
-0.238166 0.343610 -0.014932 110 66 42
-0.238117 0.343896 -0.014255 164 117 75
-0.237623 0.343513 -0.015105 40 40 26
-0.238061 0.343673 -0.014735 147 149 158
-0.238063 0.343665 -0.014761 187 195 231
-0.238109 0.343967 -0.014151 38 38 43
-0.238069 0.343736 -0.014592 137 102 106
-0.238043 0.343669 -0.014752 143 84 47
-0.238043 0.343669 -0.014752 143 84 47
-0.238066 0.343754 -0.014556 116 70 89
-0.238139 0.344331 -0.013603 6 6 6
-0.238056 0.343703 -0.014672 218 175 184
-0.238064 0.343815 -0.014438 76 34 7
-0.238068 0.343835 -0.014399 150 102 58
-0.238069 0.343865 -0.014351 54 24 7
-0.238135 0.343592 -0.015019 14 11 9
-0.238048 0.343769 -0.014534 156 117 81
-0.238638 0.343701 -0.014639 116 97 87
-0.238135 0.344422 -0.013504 77 77 69
-0.238692 0.343675 -0.014675 70 26 1
-0.238055 0.343895 -0.014316 89 94 111
-0.238011 0.343730 -0.014627 199 169 169
-0.238045 0.343911 -0.014303 13 13 10
-0.237998 0.343701 -0.014694 220 191 191
-0.238041 0.343936 -0.014266 100 119 129
-0.238072 0.344121 -0.013991 55 26 3
-0.238259 0.343596 -0.014891 132 95 70
-0.238102 0.344352 -0.013678 8 7 8
-0.238039 0.343952 -0.014255 60 32 7
-0.237969 0.343693 -0.014718 198 154 117
-0.237962 0.343726 -0.014656 136 146 153
-0.237962 0.343736 -0.014639 46 55 66
-0.238043 0.344085 -0.014092 25 14 3
-0.238117 0.344587 -0.013440 73 81 84
-0.237937 0.343704 -0.014706 68 80 91
-0.237912 0.343664 -0.014786 135 82 36
-0.255721 0.334795 -0.009937 175 189 208
-0.238032 0.344184 -0.014009 66 33 7
-0.238041 0.344230 -0.013950 41 42 37
-0.237868 0.343650 -0.014814 169 128 93
-0.237853 0.343629 -0.014859 26 13 3
-0.237904 0.343771 -0.014607 111 113 108
-0.256007 0.334668 -0.009964 178 195 220
-0.237938 0.343941 -0.014386 11 13 11
-0.237884 0.343796 -0.014588 13 16 10
-0.237868 0.343764 -0.014633 108 74 48
-0.247460 0.348615 -0.008647 78 47 20
-0.237936 0.344068 -0.014314 51 50 44
-0.237923 0.343636 -0.014972 38 46 47
-0.238076 0.344629 -0.013732 71 75 74
-0.245197 0.330430 0.022871 198 206 223
-0.237853 0.343604 -0.015017 68 84 98
-0.237800 0.343706 -0.014731 143 147 147
-0.237798 0.343729 -0.014708 22 22 18
-0.237791 0.343725 -0.014716 75 84 77
-0.237782 0.343571 -0.015063 13 15 14
-0.238281 0.345439 -0.013257 85 91 91
-0.237734 0.343548 -0.015095 10 14 15
-0.237714 0.343538 -0.015109 2 10 9
-0.237720 0.343546 -0.015101 8 13 9
-0.237592 0.343468 -0.015084 6 15 15
-0.237500 0.343350 -0.015049 13 16 9
-0.237518 0.343393 -0.015073 3 12 11
-0.237518 0.343393 -0.015073 3 12 11
-0.240479 0.352171 -0.009239 76 86 87
-0.246615 0.346687 -0.012192 217 225 214
-0.272763 0.441801 0.057268 173 194 184
-0.242459 0.350857 -0.004386 140 146 137
-0.241918 0.352016 -0.001873 95 111 111
-0.242465 0.350532 -0.005159 81 98 100
-0.242479 0.349032 -0.008690 42 45 38
-0.251286 0.344628 -0.013766 59 52 42
-0.243312 0.347198 -0.012201 141 137 131
-0.242267 0.348814 -0.009144 107 117 101
-0.250446 0.344670 -0.013932 46 37 22
-0.243607 0.346455 -0.013127 36 52 51
-0.242116 0.350435 -0.005272 102 104 101
-0.244540 0.346076 -0.013453 60 73 69
-0.241789 0.347874 -0.010947 128 149 149
-0.247695 0.335231 0.013226 248 255 255
-0.237635 0.343499 -0.015070 148 96 46
-0.247980 0.347087 -0.011025 29 31 28
-0.244665 0.348365 -0.009996 57 67 68
-0.247431 0.346759 -0.011851 170 190 186
-0.247755 0.346597 -0.011986 118 138 136
-0.244064 0.348467 -0.009913 57 61 62
-0.243824 0.348054 -0.010733 8 15 15
-0.242914 0.349204 -0.008400 55 63 54
-0.244120 0.346904 -0.012515 9 14 12
-0.251086 0.344706 -0.013699 63 57 45
-0.250431 0.344720 -0.013866 105 94 79
-0.251422 0.344386 -0.014091 76 72 62
-0.241981 0.347993 -0.010780 16 27 23
-0.242741 0.346840 -0.012719 26 40 40
-0.242553 0.346768 -0.012821 100 99 93
-0.244563 0.346084 -0.013412 4 13 8
-0.242634 0.346687 -0.012919 51 48 39
-0.250387 0.344559 -0.014097 106 93 77
217.740646 -193.257919 2.674749 91 93 80
-0.237403 0.343789 -0.013769 21 21 29
-0.237565 0.343687 -0.014992 69 75 78
-0.237519 0.343570 -0.014949 62 63 67
-0.272128 -0.165518 0.086774 105 118 122
-0.237478 0.343602 -0.015023 62 61 66
-0.237260 0.343486 -0.014584 77 81 80
-0.236983 0.343440 -0.013959 152 163 169
-0.237030 0.343447 -0.014109 99 111 128
-0.237130 0.343420 -0.014647 76 79 79
-0.242433 0.293455 0.002596 45 28 12
-0.238080 0.340285 -0.015032 101 89 83
-0.288110 0.071958 0.030942 9 16 16
-0.291273 0.075134 0.030701 21 17 18
-0.236871 0.343236 -0.014091 143 144 138
-0.236877 0.343237 -0.014125 103 103 95
-0.239220 0.348922 -0.000850 70 78 81
-0.241102 0.330007 -0.014962 13 20 25
-0.236974 0.343296 -0.014480 149 149 145
-0.236848 0.343188 -0.014134 61 75 84
-0.236893 0.343227 -0.014271 116 113 104
-0.236995 0.343466 -0.014693 151 168 179
-0.236924 0.343592 -0.014735 99 104 99
-0.236825 0.343142 -0.014193 103 103 93
-0.248162 0.320995 0.008063 138 123 116
-0.236813 0.343123 -0.014190 143 145 137
-0.236902 0.343462 -0.014682 141 140 135
-0.236818 0.343802 -0.014769 121 127 135
-0.236685 0.344207 -0.014809 48 51 50
-0.236831 0.343634 -0.014731 77 82 85
-0.236800 0.343737 -0.014751 165 163 159
-0.236725 0.343949 -0.014779 21 19 14
-0.236837 0.343549 -0.014708 46 60 63
-0.236268 0.345283 -0.014845 31 26 21
-0.236795 0.343642 -0.014728 112 118 118
-0.236765 0.343715 -0.014741 49 41 39
-0.247649 0.327123 -0.001872 87 87 77
-0.236771 0.343051 -0.014230 82 91 101
-0.236708 0.343696 -0.014729 26 31 27
-0.235913 0.345824 -0.014837 84 85 80
-0.236759 0.343030 -0.014244 90 100 109
-0.236759 0.343030 -0.014244 90 100 109
-0.236475 0.344318 -0.014790 42 38 35
-0.247421 0.327903 -0.002861 114 115 107
-0.247421 0.327903 -0.002861 114 115 107
-0.245371 0.332151 -0.007290 66 74 76
-0.246186 0.330909 -0.006782 143 148 142
-0.222661 0.378141 -0.014870 15 20 17
-0.239938 0.335811 -0.014877 15 15 14
-0.247365 0.328102 -0.003108 150 151 143
-0.236738 0.342997 -0.014269 78 92 93
-0.235656 0.346147 -0.014829 45 27 18
-0.247029 0.329036 -0.004493 154 155 147
-0.247149 0.328728 -0.004049 26 32 28
-0.246805 0.329586 -0.005301 105 107 96
-0.246805 0.329586 -0.005301 105 107 96
-0.247839 0.324631 0.004581 151 137 123
-0.246755 0.329703 -0.005492 153 154 145
-0.236713 0.342972 -0.014319 154 151 135
-0.236711 0.342973 -0.014328 118 114 102
-0.240228 0.335588 -0.014855 162 130 111
-0.247168 0.328732 -0.004036 127 132 125
-0.247891 0.325422 0.003077 163 150 139
-0.247627 0.327366 -0.001545 54 40 29
-0.239501 0.337212 -0.014769 173 124 83
-0.241407 0.338042 -0.013467 126 126 98
-0.241340 0.338081 -0.013575 16 4 2
-0.240804 0.334573 -0.014849 6 4 5
-0.242004 0.336902 -0.013279 65 26 11
-0.236660 0.342898 -0.014345 91 103 105
-0.236660 0.342898 -0.014345 91 103 105
-0.244647 0.333165 -0.010249 218 218 212
-0.245887 0.331128 -0.007888 99 99 96
-0.246093 0.330763 -0.007399 46 44 32
-0.246093 0.330763 -0.007399 46 44 32
-0.240342 0.338323 -0.014394 176 173 172
-0.245662 0.331386 -0.008341 201 218 229
-0.236582 0.342828 -0.014405 74 83 86
-0.235966 0.344121 -0.014728 107 106 101
-0.245906 0.330972 -0.007789 87 95 93
-0.240980 0.335001 -0.014239 81 41 22
-0.245600 0.331382 -0.008414 218 237 253
-0.240950 0.337193 -0.013932 142 94 111
-0.243868 0.319627 0.045405 103 81 68
-0.241042 0.337023 -0.013856 49 6 4
-0.245453 0.331496 -0.008647 233 252 255
-0.245680 0.331162 -0.008176 120 133 136
-0.245374 0.331574 -0.008779 160 182 193
-0.244945 0.332140 -0.009538 135 150 153
-0.245475 0.331433 -0.008582 161 181 193
-0.238188 0.344048 -0.014515 174 127 125
-0.237609 0.343745 -0.014172 130 90 59
-0.262807 0.342877 0.022712 125 126 93
-0.238535 0.334183 -0.010733 164 166 157
-0.236645 0.343252 -0.014600 65 71 72
-0.260052 0.337539 0.021004 151 165 148
-0.260039 0.337492 0.020982 155 169 151
-0.239905 0.336639 -0.014816 211 172 142
-0.263151 0.345162 0.022782 54 9 0
-0.236612 0.342851 -0.014383 67 73 76
-0.269841 0.432708 0.059332 70 80 69
-0.270462 0.437380 0.059230 194 222 221
-0.270462 0.437380 0.059230 194 222 221
-0.268529 0.441595 0.060998 171 198 193
-0.262228 0.343811 0.022216 147 109 109
-0.270433 0.444006 0.059912 209 236 239
-0.236546 0.342804 -0.014427 54 58 61
-0.263442 0.347073 0.022732 29 3 1
-0.260530 0.339298 0.021080 118 68 21
-0.245950 0.345773 -0.004301 70 76 76
-0.243663 0.345192 -0.007232 62 74 86
-0.492234 0.168585 0.605923 11 9 10
-0.253306 0.333946 0.013354 149 147 140
-0.269119 0.412439 0.058272 62 66 42
-0.252968 0.334173 0.013066 93 104 108
-0.252968 0.334173 0.013066 93 104 108
-0.247514 0.337449 0.008813 117 115 102
-0.251022 0.335348 0.011507 155 153 140
-0.252725 0.334333 0.012861 166 159 143
-0.270644 0.408217 0.052539 123 112 90
-0.243319 0.339823 0.005927 156 154 139
-0.255530 0.332728 0.015106 98 109 111
-0.296062 0.310637 0.049943 126 120 108
-0.262254 0.329182 0.020469 160 154 147
-0.270368 0.429562 0.058476 55 66 55
-0.242981 0.339576 0.005792 112 112 104
-0.261625 0.329813 0.019780 161 158 146
-0.248326 0.336643 0.009540 165 163 151
-0.264433 0.328543 0.021922 146 143 134
-0.246962 0.337294 0.008562 109 107 95
-0.280610 0.320815 0.034710 128 126 121
-0.262181 0.343909 0.022141 149 83 38
-0.269746 0.447739 0.060740 224 252 255
-0.240582 0.340240 0.004392 89 86 79
-0.272023 0.446776 0.058815 144 165 150
-0.299812 0.312451 0.049551 121 114 102
-2.795136 -0.455379 6.027896 105 40 8
-0.240004 0.340267 0.004047 164 162 150
-0.260795 0.340241 0.021207 195 126 58
-0.260795 0.340241 0.021207 195 126 58
-2.932714 4.466431 0.152460 17 16 11
-6.556558 9.790339 0.213896 13 16 9
-9.830038 -3.270387 11.636271 12 10 8
-1.105890 0.030606 1.038394 165 178 184
417.728058 -603.824341 0.614307 66 62 53
-0.269441 0.468369 0.062634 218 251 252
-1.510765 -0.122125 1.514086 53 58 62
-1.106279 0.159597 2.018605 213 210 202
-0.270167 0.469901 0.062383 200 235 229
-0.269506 0.473493 0.063019 218 252 251
-0.238231 0.340549 0.003172 79 80 71
-2.136493 -0.359783 1.806704 130 127 118
-0.392715 0.278348 0.116309 36 39 46
-0.515529 0.250886 0.345062 71 61 52
-2.862637 -0.635317 2.421550 147 140 130
-0.239808 0.339725 0.003678 33 36 27
-0.238402 0.340339 0.003025 112 112 104
-0.269367 0.484598 0.063974 225 250 246
-0.654937 0.200576 0.445190 99 113 113
-0.239626 0.339628 0.003454 27 33 44
-0.396826 0.294640 0.158153 63 73 74
-0.576208 0.229026 0.334581 76 65 61
-0.576208 0.229026 0.334581 76 65 61
-0.272569 0.501426 0.063815 107 106 79
-0.642396 0.201087 0.356675 123 119 110
-0.274446 0.329757 0.046208 96 36 8
-0.476266 0.266651 0.253947 175 184 187
-0.274468 0.505849 0.063169 57 46 24
-0.280942 0.496057 0.056527 128 123 97
-0.273403 0.507053 0.063866 122 127 107
-0.271907 0.506936 0.064605 131 139 122
-0.280979 0.505994 0.058169 109 100 58
-0.255871 0.338918 0.043778 247 250 254
-0.268905 0.509020 0.066037 37 38 22
-0.255339 0.338578 0.040469 249 254 255
-0.502983 0.253989 0.240828 144 139 135
-0.502983 0.253989 0.240828 144 139 135
-0.237044 0.340348 0.002539 128 130 116
-0.253670 0.336675 0.026096 142 149 167
-0.272160 0.515053 0.065147 131 143 123
-0.236833 0.340343 0.002101 106 107 102
-0.282055 0.513029 0.058146 108 99 77
-0.277315 0.520185 0.062819 17 8 2
-0.277315 0.520185 0.062819 17 8 2
-0.255154 0.334235 0.017288 25 7 1
-0.250712 0.335051 0.010359 107 56 31
-0.448577 0.275448 0.202673 22 19 21
-0.250786 0.333824 0.004454 248 255 255
-0.279561 0.520700 0.061336 124 110 75
-0.252005 0.334993 0.013256 219 235 255
-0.277781 0.525394 0.063043 89 78 53
-0.253774 0.337384 0.029078 129 125 121
-0.281584 0.524269 0.060166 132 122 85
-0.276844 0.528776 0.063924 37 26 4
-0.254403 0.334404 0.016108 84 57 46
-0.250870 0.333819 0.004868 148 152 170
-0.253139 0.336449 0.022942 252 255 255
-0.274049 0.527442 0.065273 123 134 120
-0.427277 0.280103 0.164551 12 8 7
-0.273568 0.333449 0.056751 134 11 13
-0.345052 0.312512 0.124616 73 64 57
-0.253751 0.337532 0.029435 138 130 117
-0.325372 0.333822 0.177263 85 4 2
-0.250287 0.333188 0.000793 253 253 255
-0.340272 0.314190 0.117912 15 10 7
-0.250737 0.333599 0.003842 243 248 254
-0.387347 0.297981 0.148640 183 192 197
-0.256149 0.334158 0.018715 164 141 128
-0.252428 0.335594 0.016899 243 253 254
-0.249807 0.332678 -0.002320 169 169 196
-0.258373 0.333829 0.021986 158 136 124
-0.238077 0.336434 -0.011036 250 227 221
-0.237204 0.336458 -0.012821 151 112 98
-0.382782 0.298611 0.136509 94 104 105
-0.250949 0.333753 0.005287 159 165 182
-0.236545 0.340069 0.002347 35 38 29
-0.240207 0.335565 -0.009590 34 12 3
-0.279037 0.326243 0.032298 74 73 69
-0.247660 0.330743 -0.012545 156 141 127
-0.368288 0.303111 0.119877 66 67 71
-0.368288 0.303111 0.119877 66 67 71
-0.240694 0.335433 -0.008820 180 109 47
-0.360963 0.303757 0.106490 109 102 92
-0.360963 0.303757 0.106490 109 102 92
-0.251759 0.334702 0.011337 178 187 202
-0.251759 0.334702 0.011337 178 187 202
-0.363568 0.303790 0.111733 115 105 104
-0.249108 0.331879 -0.006179 251 255 255
-0.249108 0.331879 -0.006179 251 255 255
-0.250343 0.333003 0.001208 147 154 170
-0.273326 0.328272 0.028057 68 66 60
-0.247794 0.330940 -0.012685 155 143 131
-0.237951 0.335490 -0.013376 17 20 17
-0.348971 0.308191 0.096737 122 118 109
-0.349772 0.310671 0.108827 112 115 120
-0.350467 0.309999 0.106813 27 31 34
-0.249547 0.332206 -0.003592 239 252 255
-0.252291 0.335540 0.015952 252 254 255
-0.267861 0.563080 0.070008 71 72 47
-0.248764 0.331527 -0.007762 189 202 221
-0.237218 0.335416 -0.014437 11 13 10
-0.310034 0.323836 0.081012 100 99 103
-0.310034 0.323836 0.081012 100 99 103
-0.250562 0.333152 0.002680 253 255 255
-0.249827 0.332381 -0.001800 149 156 169
-0.251762 0.334687 0.011340 180 185 209
-0.237226 0.335209 -0.014507 68 91 110
-0.251366 0.334102 0.008247 247 248 240
-0.238037 0.334951 -0.013551 125 51 3
-0.249704 0.332215 -0.002395 250 253 254
-0.249704 0.332215 -0.002395 250 253 254
-0.262463 0.333640 0.027319 26 14 10
-0.287470 0.340152 0.099939 179 184 186
-0.237152 0.334986 -0.014663 113 90 78
-0.236651 0.339449 0.002041 19 14 11
-0.249572 0.332039 -0.002970 145 151 167
-0.236946 0.334945 -0.014778 4 11 18
-0.275433 0.338623 0.069723 22 4 0
-0.237306 0.334733 -0.014601 173 89 26
-0.238691 0.335244 -0.010015 152 144 138
-0.249517 0.331653 -0.001792 199 212 231
-0.253263 0.335691 0.017893 138 141 130
-0.253263 0.335691 0.017893 138 141 130
-0.247838 0.330686 -0.010804 251 255 255
-0.236956 0.334805 -0.014493 66 88 105
-0.260926 0.336272 0.033486 200 176 164
-0.263731 0.340496 0.053786 248 231 207
-0.263731 0.340496 0.053786 248 231 207
-0.260451 0.336428 0.032855 174 200 186
-0.260451 0.336428 0.032855 174 200 186
-0.237175 0.334614 -0.013900 57 76 94
-0.274325 0.332404 0.041288 51 29 19
-0.254998 0.335414 0.019560 66 24 5
-0.286839 0.326307 0.040036 92 88 81
-0.286839 0.326307 0.040036 92 88 81
-0.237285 0.334471 -0.013723 13 7 9
-0.237540 0.334571 -0.012926 3 7 7
-0.250017 0.332319 -0.000117 210 221 234
-0.299557 0.327110 0.064214 173 184 188
-0.248028 0.330704 -0.009305 246 251 254
-0.251380 0.334010 0.008342 162 141 121
-0.247526 0.332088 -0.004895 62 69 58
-0.248751 0.334296 0.005094 190 120 63
-0.248649 0.331089 -0.006507 237 249 254
-0.247705 0.330462 -0.010031 253 253 251
-0.250712 0.333031 0.003985 254 254 255
-0.286946 0.327258 0.041169 108 102 88
-0.269062 0.330901 0.025397 14 10 9
-0.248681 0.333369 0.002244 248 189 122
-0.248681 0.333369 0.002244 248 189 122
-0.274045 0.332869 0.039678 112 64 26
-0.248293 0.330750 -0.007177 205 210 215
-0.294377 0.327268 0.051563 8 9 14
-0.294271 0.327640 0.052485 228 233 229
-0.240439 0.334362 -0.006835 108 66 43
-0.245199 0.334772 0.001800 140 74 48
-0.248944 0.331197 -0.004403 180 191 202
-0.248944 0.331197 -0.004403 180 191 202
-0.287308 0.330320 0.050335 178 179 183
-0.277272 0.329765 0.032855 57 52 48
-0.283593 0.331230 0.046785 213 215 220
-0.282132 0.331572 0.045577 232 236 237
-0.250303 0.332417 0.002041 252 255 255
-0.287786 0.329222 0.045822 176 170 170
-0.287854 0.329293 0.046138 226 233 226
-0.279205 0.329733 0.035006 43 43 43
-0.279205 0.329733 0.035006 43 43 43
-0.274781 0.333007 0.039178 5 6 2
-0.249177 0.331328 -0.003012 254 255 255
-0.241530 0.332078 -0.011514 192 130 83
-0.250141 0.332211 0.001354 186 199 216
-0.279156 0.332229 0.042149 75 40 14
-0.279156 0.332229 0.042149 75 40 14
-0.249048 0.331189 -0.003241 246 254 255
-0.248839 0.331023 -0.003974 165 174 183
-0.250175 0.332215 0.001645 251 253 254
-0.281956 0.330508 0.039868 164 175 181
-0.276713 0.332741 0.039582 114 109 98
-0.281907 0.330623 0.040066 221 220 218
-0.277261 0.332622 0.039865 84 36 5
-0.280331 0.331673 0.040740 105 115 118
-0.249307 0.331362 -0.001889 178 193 214
-0.276258 0.332808 0.038417 229 233 230
-0.254574 0.334890 0.015917 20 12 9
-0.250026 0.332012 0.001173 255 255 255
-0.239262 0.332821 -0.010553 9 5 5
-0.249045 0.331128 -0.002664 250 255 255
-0.278115 0.331625 0.036771 159 165 166
-0.262639 0.334679 0.025706 43 10 4
-0.263509 0.334636 0.026602 190 124 73
-0.261222 0.334782 0.024061 185 135 86
-0.262564 0.334726 0.025497 181 125 84
-0.273287 0.333348 0.034874 119 56 22
-0.240715 0.333054 -0.007094 45 31 21
-0.250505 0.334763 0.010232 107 117 117
-0.266267 0.332678 0.023934 140 144 147
-0.239769 0.332498 -0.009798 34 14 2
-0.262389 0.334782 0.025153 26 8 11
-0.249733 0.331670 0.000292 198 217 223
-0.239534 0.331205 -0.013751 86 31 6
-0.249924 0.331850 0.001064 253 254 255
-0.252270 0.334887 0.012579 215 165 117
-0.263107 0.334739 0.025900 196 140 90
-0.260555 0.334881 0.023123 20 0 0
-0.272605 0.333443 0.033917 111 49 18
-0.272406 0.332360 0.030459 11 12 14
-0.251551 0.334826 0.011736 102 93 104
-0.242119 0.329841 -0.014241 215 166 127
-0.243767 0.329394 -0.013441 203 194 189
-0.241060 0.332989 -0.006436 141 118 106
-0.262401 0.333261 0.020583 164 171 177
-0.251988 0.334852 0.012348 73 45 33
-0.270842 0.333732 0.031943 246 190 99
-0.249846 0.331735 0.001009 253 253 255
-0.249923 0.331800 0.001353 122 114 101
-0.269372 0.333922 0.030134 104 57 23
-0.240910 0.330294 -0.012991 120 73 43
-0.268736 0.333972 0.029257 78 46 23
-0.244081 0.329367 -0.011790 120 73 43
-0.264553 0.333445 0.022924 18 18 20
-0.268880 0.333726 0.028641 133 140 156
-0.249734 0.331587 0.000902 247 244 242
-0.267275 0.333952 0.027006 206 213 230
-0.249061 0.334490 0.008176 104 126 132
