ply
format ascii 1.0
element vertex 671
property float x
property float y
property float z
property uchar red
property uchar green
property uchar blue
end_header
-20.246059 1.081311 116.180580 83 56 53
18.489023 62.815475 135.574768 253 239 228
-20.970877 -29.745504 123.783234 76 84 82
15.618534 55.382416 133.736816 179 195 194
-45.055729 -43.978951 132.057831 92 81 63
5.526407 -9.505963 123.377251 18 14 13
7.204552 17.222036 122.058914 118 64 37
-30.753437 1.376886 118.868141 172 120 63
-44.081127 -16.535753 126.568314 30 31 27
7.013309 4.697141 18.154676 193 170 145
-18.187840 36.025402 118.599838 165 186 184
-14.287146 -9.743315 116.260765 131 127 115
1.580270 -0.226421 10.244824 251 208 111
0.618031 45.863655 128.692459 102 99 90
-8.723349 -33.089794 125.709023 149 153 139
21.262220 38.027954 132.684555 9 14 7
-4.907310 -22.165905 123.954002 177 6 12
-27.990799 -1.313166 117.966194 29 19 9
-4.438529 -4.404914 115.017632 16 14 28
18.555008 33.271397 130.221024 31 12 4
-33.625290 47.763527 119.625526 142 129 110
10.107282 22.616371 125.040359 5 10 8
16.580357 -12.195191 128.592407 17 14 8
-21.854162 -42.356087 125.751755 112 106 92
-3.043648 -59.404938 133.076538 134 86 56
-30.793968 29.042700 119.998474 95 95 90
-47.317818 -62.426991 137.631348 152 159 144
-53.341572 -63.241325 137.422455 131 122 107
5.198845 27.884203 123.513847 255 255 254
-3.949229 57.078812 136.143967 101 97 88
-42.553944 -32.133942 129.302887 140 151 135
11.118143 1.784878 124.265808 51 60 57
-15.849174 -5.137856 114.523117 25 17 12
-8.994307 -24.984571 120.922287 248 249 253
-15.687934 25.505749 118.085243 149 172 185
21.549793 39.979610 132.509064 30 20 11
4.026490 -33.743336 131.741653 45 37 25
-30.887749 65.061211 117.365829 187 140 98
-30.887749 65.061211 117.365829 100 98 81
3.609082 -37.959957 128.613998 198 206 223
-3.362384 -1.869506 115.634338 125 119 105
-3.741929 0.276188 115.905312 88 54 33
14.233767 -29.255178 129.286880 147 133 110
-10.358577 55.217926 131.615524 83 65 38
-6.884424 10.122245 16.624561 133 129 115
22.037117 -32.083492 137.509445 13 12 5
-1.215149 -59.312241 136.516281 36 36 37
16.417181 46.670387 134.314743 7 9 8
-37.693726 21.185339 120.959381 146 153 135
-2.212137 -42.733509 129.346542 39 50 48
-42.815098 -12.642383 124.684937 130 119 101
-27.081793 22.050730 118.713028 90 99 88
-25.483303 -4.618273 118.093262 149 162 157
-12.173821 -0.842455 115.361313 46 94 77
-28.916727 38.224739 119.692078 18 9 3
-9.449475 16.671621 113.563271 57 61 65
-25.927868 -1.054999 117.455315 243 238 236
-31.983706 39.538292 118.190186 17 11 8
-45.919765 -15.198009 127.631721 132 126 112
-42.990871 -12.053356 124.982483 113 125 113
-47.986244 -40.993359 129.241165 133 120 104
-61.138554 -54.529728 180.485214 81 83 71
5.426092 81.983147 135.231781 19 14 7
-28.814634 -38.504372 126.294960 229 243 241
3.574875 -64.382309 138.042603 163 172 183
-43.183285 -15.096172 125.754684 122 124 110
21.433332 28.456499 132.038086 218 220 217
-19.380161 -29.052626 117.175209 214 227 219
22.823753 -37.347176 137.360168 62 15 5
2.033176 -38.858181 129.156097 141 108 81
-36.945583 0.489625 122.263527 166 169 152
22.450670 1.320554 130.144180 224 230 236
4.155055 25.614742 122.705750 110 121 113
-8.180648 -33.880230 125.152527 204 199 208
-39.788090 64.600708 110.331703 76 54 37
-9.052564 -1.792050 115.224213 59 49 41
-6.885690 1.345215 114.409065 66 45 26
-6.162825 1.596285 113.997894 137 121 97
-6.109213 0.805033 114.447510 85 77 64
-5.529969 -3.916339 114.870575 188 198 210
-3.688190 -2.094169 114.659698 250 253 255
-2.890716 3.035160 115.447243 34 26 24
2.606308 4.112488 118.114349 109 96 88
-2.481858 12.350068 115.789040 255 255 250
-2.333885 13.038998 114.962112 139 143 155
-2.333885 13.038998 114.962112 104 65 36
-2.880449 17.171440 116.465324 253 245 240
-1.433528 14.825935 116.077507 17 16 51
13.913228 39.458946 127.639900 127 131 132
2.003926 3.615523 118.586784 143 142 137
2.967916 -15.629235 122.356232 67 34 13
-0.355488 6.973923 23.363834 121 123 143
-43.803596 -13.919778 124.922913 148 150 135
-41.472603 23.035551 118.756363 19 22 16
-44.042015 -31.859413 128.969360 53 37 18
-43.367249 -31.840948 129.583054 143 146 132
-38.434772 2.305531 114.662766 123 84 50
-39.044697 -27.234121 125.599266 140 132 113
-39.502621 -27.390778 128.619537 24 5 3
-36.735699 1.436720 122.511810 77 64 48
-31.686672 -40.097645 127.811615 20 12 4
-32.222412 0.006998 120.134209 11 9 14
-29.511415 -1.316220 118.822548 27 15 6
-32.683247 23.960217 122.045250 46 48 47
-33.146870 30.526648 121.460556 105 92 73
-29.249708 0.683900 118.481972 147 135 119
-28.342569 -2.158287 117.653839 146 134 122
-31.507849 27.958000 120.278328 21 20 18
-30.526564 22.931393 120.273346 7 2 0
-26.834814 1.715722 117.673843 213 224 219
-25.671247 -5.828883 117.766670 34 1 0
-23.305557 -0.878349 116.106361 97 91 75
-22.833420 -1.301683 116.296333 12 12 13
-22.833420 -1.301683 116.296333 241 240 220
-23.106256 2.548100 116.126762 6 2 1
20.678051 25.810490 130.508011 181 121 65
-22.274412 -45.474770 130.715927 122 90 93
-22.042969 0.222617 115.752602 104 100 88
-28.123392 3.499137 117.438164 113 114 109
-20.438665 -3.168396 115.002831 228 241 232
-5.279634 1.968927 113.687637 55 42 34
-20.278467 -3.636756 116.195641 97 81 65
-20.269613 -2.857947 116.539276 23 10 4
-20.396521 1.675581 116.360504 97 81 65
-19.760082 -5.125443 115.390991 21 17 14
-18.846487 -11.074969 116.254684 138 129 121
-22.229101 -31.577526 122.694923 103 96 71
-17.610825 -10.844061 115.993843 213 232 228
-17.610825 -10.844061 115.993843 87 41 0
18.261860 -12.115137 129.225357 22 27 30
3.048802 -0.250991 11.786869 149 144 142
-15.091580 -0.906959 114.531914 153 97 39
-13.319324 -42.319889 128.037582 32 62 51
-12.265392 -0.869874 112.360352 10 12 9
-8.077323 -41.267876 126.831398 87 84 65
2.334357 -9.845733 120.185623 88 81 71
2.711754 5.275951 115.527260 254 253 249
-30.253851 27.606630 120.333931 104 77 68
-33.009701 -0.380014 120.381157 58 58 57
2.467064 1.150401 9.835485 106 80 53
-20.015230 -4.111257 115.304192 145 153 140
-16.046452 -9.974396 116.085297 210 236 234
2.822130 -32.334526 125.599640 18 4 1
-15.287105 -4.815250 115.162521 198 195 190
-16.749775 -5.255104 114.892792 176 203 204
-16.375910 -4.182169 114.629143 74 17 0
-14.722150 -3.543520 115.068871 75 40 15
-13.424089 -0.618346 114.495316 124 125 110
-14.296204 15.739918 115.328011 153 171 161
18.257849 -13.065942 128.538437 196 164 133
12.951735 32.560013 126.718636 121 79 47
-1.192159 -13.176057 116.591278 222 228 243
-9.679432 -2.415772 114.059814 60 21 10
-3.708743 -1.458815 115.144608 127 121 107
-3.985045 16.791307 117.035004 97 39 10
2.225650 -33.253513 127.176796 146 74 19
-0.010150 21.452862 118.936157 249 255 255
-4.853598 82.374329 132.552841 85 73 57
4.924594 4.787711 120.221260 255 255 254
6.750708 -11.375252 117.742401 196 206 207
7.155864 16.060734 120.779572 200 147 115
7.344082 8.838611 121.166565 146 88 63
8.573172 7.009195 121.667023 94 58 53
13.419618 -56.196648 134.492416 72 67 62
14.895782 -32.136730 128.426605 22 27 30
-12.337772 -3.496017 115.540916 238 255 255
5.377538 25.753675 121.759186 36 22 13
7.719935 -12.461452 31.395119 171 157 145
17.085981 -32.307739 130.182602 18 18 18
17.529219 -31.628172 130.589890 100 55 26
13.824936 31.657522 128.171204 189 131 73
13.824936 31.657522 128.171204 136 137 139
-31.507849 27.958000 120.278328 139 136 125
3.476568 -34.401615 126.896690 187 195 205
9.256072 -35.078445 127.887894 170 158 141
2.622593 4.169652 117.936905 252 214 147
6.325359 6.990118 120.419960 51 59 57
8.839693 0.362091 122.890442 107 100 92
15.560749 -30.367691 128.841583 38 43 47
6.286974 30.607613 124.416214 178 190 199
18.191156 3.267335 127.609100 188 196 195
22.331156 9.638930 132.161423 117 70 39
24.474985 -8.492361 134.802277 106 66 33
25.926764 -19.516411 135.041565 71 72 76
-35.799015 64.610641 114.434883 119 89 53
21.191324 8.510879 131.967972 86 82 71
-13.861219 -28.845503 120.137054 253 249 243
-40.876587 31.993025 117.048790 90 72 59
13.283442 34.545277 126.686470 69 72 73
-30.833248 27.152777 123.236015 195 151 105
-44.973984 45.163612 108.784775 170 179 180
-54.887691 -64.625481 132.910217 115 103 91
-45.703209 43.064865 111.469826 109 101 87
-46.211384 42.866741 112.834091 101 96 81
-45.430302 44.655415 111.175705 17 15 16
-46.405182 -14.321041 113.715454 120 130 123
-44.382046 45.661621 108.963600 77 75 71
-43.377731 48.755669 106.585258 121 120 102
-45.583252 43.875500 112.615311 8 12 11
-45.571430 42.909176 112.855095 33 26 19
-45.210159 45.551331 112.044670 32 27 15
-45.413929 41.741638 112.610397 88 82 74
-45.960629 44.010109 114.758392 49 40 33
-43.638672 48.357849 109.047035 24 21 15
-43.198940 64.200279 108.274010 75 83 82
-45.665863 47.523212 114.510918 75 83 82
-54.390778 -64.686661 136.492813 131 141 133
-44.245197 50.986919 111.897392 30 27 26
-42.293972 62.909180 107.283295 112 106 94
-45.227566 44.947853 114.606827 145 142 131
-40.770107 61.961178 105.137337 254 254 250
-53.341572 -63.241325 137.422455 83 82 82
-43.384171 43.319107 112.297928 5 12 5
-41.508129 63.072254 107.833611 41 42 34
-46.899532 -3.352614 122.487328 121 108 92
-31.933651 -39.380692 83.345001 106 100 86
-44.907219 44.589397 118.302490 120 134 118
-52.546436 -62.985325 138.902847 44 35 18
-42.867924 83.007416 113.808464 93 97 100
-43.476063 32.251228 115.318817 127 118 101
-44.860302 -2.720749 120.321289 100 95 75
-44.860302 -2.720749 120.321289 15 17 14
-42.685143 50.210556 115.102974 17 24 20
-44.306366 -2.222710 119.828415 17 24 20
-47.741467 -23.931641 130.073914 51 46 38
-47.741467 -23.931641 130.073914 94 106 95
-44.246941 -1.065537 120.638481 121 124 107
-42.159897 43.873386 116.055878 37 47 46
-45.084724 -13.208893 124.600769 29 38 37
-42.783749 0.527451 118.297791 9 14 7
-41.751236 35.435932 115.819977 11 17 9
-49.291004 -61.591496 137.363174 48 58 55
-43.467140 -3.733081 121.708366 16 25 17
-45.673264 -39.198242 127.991554 74 53 34
-41.494061 44.364941 116.846039 21 28 21
-41.415779 39.497177 116.592522 141 144 127
-46.227879 -43.198048 130.648849 59 68 60
-40.736637 32.806450 116.490440 37 39 24
-46.056973 -36.689857 133.030991 16 19 12
-46.303303 -43.465351 133.739517 24 28 23
-45.489193 -42.568417 132.497650 41 29 16
-42.206738 -60.930840 135.904190 148 142 127
-43.648773 -31.359114 129.597580 51 49 34
-42.772953 -39.443985 127.017456 48 51 44
-43.609600 -28.258316 129.979767 48 51 44
-43.015900 -32.561081 128.789536 147 146 130
-40.152500 23.981964 120.465996 125 84 40
-42.318832 -27.136902 127.226639 57 59 46
-42.723263 -28.033272 129.345322 35 33 17
-39.217194 45.185562 119.055885 141 150 132
-39.977623 24.607668 121.612976 156 160 144
-45.396057 -62.851871 138.156952 110 70 34
-41.563881 -28.872883 127.069992 75 86 70
-37.491543 78.375931 115.143463 94 83 65
-41.014908 -26.652767 125.914047 155 114 74
-44.269955 -52.049843 136.183182 25 13 5
-37.694031 81.421768 116.314545 139 150 133
-37.021339 74.810516 115.185364 115 106 89
-40.800995 -25.177786 127.499290 103 96 78
-40.800995 -25.177786 127.499290 109 102 84
-41.057312 -38.592445 128.958817 56 61 54
-36.768894 57.647282 116.225594 56 61 54
-37.610260 18.845110 121.194923 109 116 100
-42.000408 -56.707150 137.111160 100 75 50
-36.852203 89.005905 120.896614 89 78 60
-39.957111 -48.688320 132.240204 96 83 66
-35.691422 83.423340 118.406998 103 98 79
-35.691422 83.423340 118.406998 127 130 114
-42.000771 -64.364929 139.752609 127 130 114
-37.113644 -12.467038 123.568291 106 100 84
-41.866474 -63.439594 140.010071 111 49 3
-39.812305 -50.210503 133.323212 23 14 13
-41.514782 -63.671879 139.091949 138 125 106
-36.761406 -33.832424 123.617516 33 44 21
-36.656723 -12.943179 123.497147 142 129 110
-35.419930 20.387203 119.348587 79 63 47
-34.141220 65.812294 115.992218 88 82 65
-34.084118 66.163834 118.019745 175 115 53
-34.229145 -0.110045 119.363281 130 79 30
-39.375759 -63.402828 139.436508 45 30 12
-34.101616 52.825169 121.052025 8 12 13
-34.474422 24.509375 123.590347 24 19 19
-42.361229 -99.587532 152.751663 8 12 13
-39.269360 -64.442589 142.144699 227 188 151
6.322762 -56.243622 135.316177 75 14 0
-33.293133 26.629663 122.495193 19 6 1
-32.988075 90.081276 123.651306 13 12 10
-31.183041 65.719147 117.650192 64 47 46
-31.877153 53.520645 120.995087 245 226 229
-31.329878 54.972996 121.227524 74 74 67
-30.614214 27.267036 118.396935 172 120 63
-31.209450 -0.114146 120.774109 140 141 127
-30.871838 54.349678 120.660210 153 102 47
-39.074188 -97.829041 153.708313 151 141 144
-39.085625 -99.376457 156.167648 34 38 36
-39.085625 -99.376457 156.167648 146 131 112
-31.159460 -36.058205 124.848038 94 62 29
-30.267414 85.093788 122.878609 172 175 158
-37.158993 -94.988998 151.626373 85 78 67
-29.584534 56.490292 121.217064 220 212 223
-29.699808 86.811142 122.012398 157 143 124
-28.823677 -1.398394 118.370705 53 57 43
-30.074287 -35.734627 124.238342 66 74 71
-28.789640 -0.093352 119.648262 173 177 162
-29.705381 -36.314796 125.087303 113 114 109
-28.690205 57.858627 122.454002 234 235 240
-29.523314 -36.534855 126.285782 25 16 11
-29.721153 -40.523499 129.151871 128 135 120
-28.351198 -32.759216 123.495552 163 155 138
-26.317293 45.025883 115.106712 120 122 110
-26.761597 0.015285 117.615471 15 16 18
-26.621284 0.931074 117.351746 71 81 72
-25.665668 -1.765786 116.461861 4 4 2
-27.926291 -39.519905 126.991608 207 154 103
-28.566065 -40.967545 129.924789 253 222 188
-25.611872 -0.484319 117.242935 19 18 15
-27.135546 -34.985775 124.845474 76 86 77
-24.973295 24.747971 117.028740 101 72 56
-26.566042 -32.746071 124.616638 171 183 171
-25.963814 65.979103 122.198891 111 87 75
-26.678654 -38.438053 126.288872 28 34 27
-25.975519 -34.557869 124.209450 25 27 26
-24.375416 -0.463679 116.616226 220 232 228
-24.143860 1.466995 116.347534 90 89 86
-25.813860 87.974922 124.827248 240 254 255
-23.935890 -4.838726 117.013374 170 185 180
-25.359137 -39.122959 126.567726 34 26 9
-23.119492 0.031819 115.594574 12 11 7
-24.083046 53.514637 122.706787 239 254 255
-24.058340 80.663010 125.291977 173 117 65
-22.259811 18.070255 115.571999 69 73 72
-21.823298 -6.476588 113.375946 245 240 232
-23.533461 52.765057 123.025475 245 240 232
-22.230749 -1.370682 116.995850 31 16 9
-21.283039 19.381990 116.360336 11 11 9
-22.685047 66.580017 125.376060 235 231 213
-22.685047 66.580017 125.376060 177 190 183
-20.187944 0.657713 113.617737 28 10 1
-20.397245 -4.945959 115.352615 82 81 81
-20.397245 -4.945959 115.352615 20 14 7
-25.594057 -80.041161 145.916641 80 72 69
-25.594057 -80.041161 145.916641 123 91 97
-20.349566 -6.223089 115.814087 123 91 97
-21.667864 86.909042 127.721848 122 90 93
-21.667864 86.909042 127.721848 97 11 13
-21.272516 69.785751 125.263962 220 234 230
-21.272516 69.785751 125.263962 64 51 37
-19.529715 -3.730484 114.863922 146 140 126
-22.083368 -44.264164 130.151688 146 140 126
-20.930096 -30.945776 124.846313 135 145 131
-20.930096 -30.945776 124.846313 213 230 222
-20.955944 -34.007507 126.052109 149 162 153
-20.955944 -34.007507 126.052109 149 162 153
-21.229111 92.380470 128.528030 128 81 40
-19.120462 0.885141 115.988205 143 159 151
-20.804193 -38.401783 127.451569 135 151 145
-17.248123 -24.462286 107.164825 135 151 145
-3.965911 -5.465874 23.614370 104 97 79
-21.066080 96.598259 130.773239 241 255 255
-20.113626 -34.398632 124.738144 222 241 236
-20.091442 -37.174984 126.215179 219 235 224
-18.272661 -3.473206 115.287254 211 141 74
-19.361246 -25.733547 122.624695 240 255 253
-18.493980 -10.578238 117.286293 236 248 252
-19.044281 25.203989 120.915169 148 102 57
-19.432659 -33.465927 124.184021 209 228 222
-17.951687 -4.349355 115.759880 140 75 12
-18.377096 23.334682 118.554863 16 22 20
-18.884020 -37.135044 125.086815 126 128 124
-19.115578 83.855621 129.274612 219 151 80
-18.246201 -37.295883 125.152924 215 147 80
-18.438438 76.193092 129.117050 115 48 1
-16.375910 -4.182169 114.629143 240 255 255
-17.652542 -33.064392 123.878487 152 83 23
-16.542269 -11.425436 116.920044 198 149 108
-17.225256 -33.676060 123.468658 198 149 108
-15.585340 -0.210689 112.921005 204 153 106
-17.808228 76.271530 129.623856 179 103 44
-15.699208 -2.542268 114.684250 179 103 44
-17.714207 95.298576 130.132629 214 149 87
-17.127054 -37.397911 126.157906 157 184 198
-15.592477 0.968538 114.918083 138 137 125
-15.747193 -1.686387 116.295265 189 190 185
-15.343209 -2.885094 113.645027 146 139 120
-16.673862 -34.125458 125.998009 153 97 39
-15.918317 48.920498 122.400848 60 19 8
-15.239783 -11.328853 117.317970 114 111 97
-15.932133 50.631271 123.489830 206 231 227
-16.807810 79.283493 130.598373 120 120 118
-16.047346 -36.774536 124.887016 89 90 92
-15.441975 -32.218849 121.287491 8 9 11
-15.441975 -32.218849 121.287491 55 62 69
-14.739017 56.633698 115.848785 241 255 255
-14.055084 -2.762409 114.066147 153 171 161
-13.965731 0.276254 113.804504 63 62 60
-15.500942 79.853668 129.310303 63 62 60
-15.555796 79.343513 130.095062 182 180 171
-14.878337 -36.677082 125.402527 215 151 89
-13.637918 -2.797562 114.796654 119 144 149
-14.450062 45.479874 122.552132 66 75 83
-15.206485 80.859077 131.586929 235 255 254
-14.213795 -35.610325 123.318932 17 17 17
-12.931566 9.815715 114.250885 208 231 233
-12.636489 1.166799 113.982788 128 127 120
-13.737625 -36.092022 125.343430 140 157 147
-13.744697 -35.534653 125.417244 159 188 191
-12.358200 -1.473082 113.911896 153 167 173
-12.382875 -0.920069 114.740723 161 191 194
-12.559570 -24.126654 119.200958 205 210 201
-13.302217 53.915081 126.896301 32 73 58
-12.692215 -25.777370 121.437401 205 184 172
-13.027519 -37.236027 126.495964 188 208 205
-12.333173 -35.256744 124.232201 77 79 64
-12.541104 -36.914238 127.332649 154 176 174
-11.388980 -26.348585 121.376320 235 252 248
-11.083320 -24.405972 121.170174 242 190 131
-11.619840 55.986122 131.451431 147 160 151
-10.029373 -1.059264 114.860550 177 176 156
-11.357324 87.982002 133.139053 168 175 168
-9.584666 -1.953029 114.916931 128 127 130
-9.547968 25.198648 117.779404 130 111 80
-9.474857 -22.349142 118.608803 100 50 19
-9.811397 -27.913090 123.161568 33 27 21
-9.723982 -26.963902 122.211266 130 75 36
-9.723982 -26.963902 122.211266 119 90 63
-8.758826 15.606494 113.923889 128 112 96
-8.758826 15.606494 113.923889 128 112 96
-8.994307 -24.984571 120.922287 20 22 26
-8.384998 -1.279619 113.083649 20 22 26
-9.427929 64.679527 129.223312 122 106 91
-8.985438 51.186653 124.474464 140 124 101
-8.914084 46.464958 124.610474 93 96 94
-8.310366 39.305252 119.813484 144 166 181
-8.310366 39.305252 119.813484 80 89 94
-7.858695 -0.594848 113.433662 86 80 68
-7.939095 -22.925076 118.354935 86 80 68
-7.588519 -0.269360 114.672173 153 165 177
-8.180648 -33.880230 125.152527 148 152 141
-7.808135 -22.573414 119.369240 171 151 115
-7.950417 -16.570787 121.674965 79 2 15
-8.294460 -41.091557 127.980331 87 84 65
-8.319443 54.859123 130.747787 232 163 86
-7.248881 -24.096226 119.619514 173 187 187
-7.388815 -23.822506 122.068855 254 255 255
-7.407923 -28.615564 122.974724 254 255 255
-7.407923 -28.615564 122.974724 145 45 57
-7.338205 -29.666012 121.993820 53 37 11
-6.939788 -26.663481 120.661385 21 18 9
-7.810133 -58.688946 136.728394 217 145 113
-6.589601 -23.621225 117.498230 146 151 138
-6.833622 -27.010748 122.524948 25 16 9
-6.837417 -27.940109 122.885056 135 128 117
-6.982449 -56.149288 132.794662 18 11 5
-6.689684 93.462921 133.438492 100 87 75
-6.091555 -25.638153 121.823288 84 16 2
-5.728097 -23.182320 120.114830 36 39 46
-5.919817 87.099228 132.289032 87 82 78
-5.919817 87.099228 132.289032 247 205 89
-5.296863 -22.325895 121.292313 147 132 98
-5.809496 73.908089 135.332047 72 68 57
-5.698567 -57.758270 137.064285 142 90 43
-5.734978 -62.156342 140.142380 73 42 23
-4.689610 15.767797 115.475731 121 115 101
-4.689610 15.767797 115.475731 104 106 101
-4.694173 -0.715836 115.318115 151 156 171
-4.667294 16.936899 115.397125 143 130 114
-4.848450 37.327709 120.592613 4 8 38
-5.359472 62.536839 133.761917 4 8 38
-4.263185 17.523914 116.561012 246 64 73
-4.245209 42.927425 121.200554 196 202 221
-4.369699 -34.776230 125.789124 113 109 98
-4.369699 -34.776230 125.789124 103 99 88
-4.615198 -57.573250 136.141861 10 10 12
-4.530784 71.421181 134.422256 71 71 56
-3.708743 -1.458815 115.144608 164 171 174
-4.167709 65.359634 131.827347 238 96 95
-3.997853 -55.441856 132.174698 135 133 121
-4.045185 81.053932 131.910477 128 125 116
-4.034580 79.939232 132.238861 132 128 117
-3.415958 0.906752 115.557350 185 193 208
-3.511306 -29.599487 120.840759 113 109 100
-3.528004 -34.519604 123.103165 163 15 6
-3.659290 85.109314 132.180023 80 91 90
-3.162777 20.193659 117.458626 135 34 16
-2.966210 11.540548 115.391159 30 23 17
-2.905419 15.804351 116.314171 188 136 84
-2.860721 14.802241 116.234886 253 245 240
-2.653347 15.836776 116.518997 56 19 6
-2.976732 -60.219090 138.068634 48 72 140
-2.486346 17.382198 116.586250 111 65 37
-2.353489 16.930359 116.494911 17 15 19
-2.633500 -56.653706 136.398621 9 8 79
-2.233880 5.262451 114.900352 9 8 79
-2.177467 4.182586 115.875175 169 176 192
-2.089343 14.721588 114.993790 3 12 9
-2.403498 -59.281197 138.819565 115 106 122
-1.763329 -59.253532 135.755371 170 109 50
-1.401231 18.440821 118.245674 252 255 255
-1.335874 59.294823 134.928314 78 30 8
-1.014401 21.906452 119.713440 56 24 9
-0.989675 61.795300 136.342758 36 48 44
-0.930840 60.022297 134.554581 162 166 176
-0.766698 4.649062 113.293045 8 25 21
3.493311 -37.024223 87.517090 19 14 7
-0.466025 3.983588 114.733788 38 50 44
-0.154332 84.667557 131.498917 175 99 36
0.099046 60.684727 135.658081 84 36 10
0.221931 -33.322067 124.728401 192 130 67
0.408947 -61.554882 136.820847 37 48 41
0.678126 -55.288891 135.812210 147 156 135
0.669457 60.968178 135.413834 189 203 204
0.792548 69.784538 136.013962 125 108 89
0.168034 33.689404 75.376480 176 185 179
0.867773 20.995329 118.349739 195 207 221
0.968228 5.981436 117.905457 42 54 50
1.179365 -11.631462 120.292160 63 72 74
1.220688 -10.212518 119.333984 188 122 66
1.703037 -58.915108 138.456619 19 5 2
1.710923 21.249132 119.416443 166 165 160
1.788369 23.548952 122.409676 137 123 111
1.915363 24.046785 121.210861 183 192 189
2.185924 67.869492 134.134140 186 126 71
2.373226 80.776855 131.926102 167 87 24
2.373226 80.776855 131.926102 254 255 255
2.373226 80.776855 131.926102 132 84 34
3.839779 111.263489 201.237854 249 254 255
2.271435 4.573778 115.732269 88 81 71
2.756348 -33.954742 127.601044 123 120 113
2.624388 -12.743162 121.012077 195 186 180
2.838244 -11.218305 120.905922 158 85 29
3.348839 -57.470997 136.191162 158 85 29
3.348839 -57.470997 136.191162 254 253 249
3.388647 75.257927 137.463959 202 180 167
3.154937 -13.313276 120.748520 163 172 183
3.517860 -37.877293 129.552536 210 141 65
3.609082 -37.959957 128.613998 114 107 99
2.472157 -34.587322 89.284645 47 27 19
3.923453 65.205109 137.953262 50 41 27
3.666073 -32.354034 127.474327 100 84 58
4.019460 66.295433 137.877289 45 37 25
4.814987 -66.676498 139.978470 249 245 227
4.734847 -64.613770 136.941467 61 68 69
4.696138 -56.130672 134.011108 254 254 255
4.975068 66.151268 138.457428 99 92 82
4.606596 -13.259624 122.323570 133 126 119
4.749960 26.005442 122.511429 199 212 220
4.749960 26.005442 122.511429 120 126 116
5.360146 -57.808449 135.083649 28 5 0
5.360146 -57.808449 135.083649 171 144 123
5.722662 79.343025 137.080154 104 97 89
5.930324 66.872879 139.946136 182 118 57
5.473505 -29.511993 127.648178 148 99 51
6.065024 67.158905 139.208252 36 22 13
6.322762 -56.243622 135.316177 75 14 0
5.585385 5.742754 119.735443 104 105 110
6.379757 82.122818 134.102921 124 63 22
6.745339 66.911964 138.816467 178 190 199
6.286974 30.607613 124.416214 8 10 9
6.197144 6.001223 119.941750 92 31 12
7.360347 65.930481 139.474823 11 13 9
6.761972 10.068784 119.945847 41 7 1
6.767193 16.399403 119.522385 36 6 0
7.595242 45.685287 129.884979 53 61 57
7.658331 45.749889 130.813431 223 231 235
7.922582 91.213890 131.094116 251 255 254
8.482411 -53.683712 135.374008 251 255 254
8.513136 83.676514 133.442368 101 97 88
8.073388 16.864113 122.014137 73 72 67
9.265308 -55.399178 135.178040 209 214 217
3.899427 28.139856 47.975857 163 150 130
10.062159 80.050423 134.619156 40 19 9
10.244445 -54.446709 132.867249 137 121 98
10.268599 45.373787 132.582092 40 18 4
10.550365 -54.918591 135.646469 140 122 105
10.550365 -54.918591 135.646469 21 22 25
10.795574 66.230583 138.890228 86 78 76
10.441250 28.757301 126.707680 180 187 193
11.733678 -54.866940 134.222534 124 80 45
11.733678 -54.866940 134.222534 24 16 14
10.925643 2.304524 124.207802 167 181 181
10.938560 21.969055 123.236160 173 181 180
11.474619 30.055048 127.900444 177 167 165
11.783154 -51.301662 130.089233 29 35 33
12.547831 65.773956 138.611176 83 72 66
12.111067 34.756432 128.521317 31 11 4
12.444707 38.597542 129.458130 152 136 119
11.843221 0.009826 123.277924 177 191 192
12.431862 -27.854799 128.459122 11 13 11
12.822958 43.868462 127.870422 193 204 206
12.760769 31.742687 127.463821 46 57 59
14.022120 72.973625 139.921112 210 214 224
14.081269 72.691399 140.112000 16 9 7
13.618195 -32.502323 129.855942 45 50 49
14.583958 73.851166 139.878433 121 73 34
13.232098 28.103460 125.900253 71 81 81
14.538696 71.934143 138.635117 99 51 16
13.974112 -33.104824 130.753662 99 51 16
13.795542 -26.827122 126.979225 111 50 21
14.785662 70.385818 136.252869 7 10 14
12.357296 -5.857357 113.215744 7 10 14
15.031799 70.011703 137.673386 156 124 101
14.183180 39.407124 127.818710 147 133 110
15.205318 77.774483 137.874985 20 24 25
15.001641 51.621078 133.988708 42 18 8
15.001641 51.621078 133.988708 17 21 23
14.618686 24.710407 127.484573 106 96 95
15.305199 52.230927 133.232254 253 217 104
14.578988 23.325487 124.744133 14 10 4
15.451735 0.091239 130.640839 182 191 184
15.866024 -33.758396 131.008026 45 50 49
15.820969 -29.831980 129.096329 72 73 78
15.513729 -27.914516 126.291359 176 149 126
16.106031 -13.407750 128.866074 231 230 230
17.184795 64.047203 137.296844 106 53 17
15.940629 22.860821 126.057045 106 53 17
16.064512 25.740759 126.416534 177 158 141
16.434204 23.816244 128.481888 93 46 6
16.477541 28.368910 128.375748 6 15 16
16.734102 36.480820 129.354813 16 6 4
16.694437 25.593849 128.058365 69 82 5
16.979321 0.110556 127.086433 188 123 62
22.581671 44.783249 133.348618 130 127 127
18.187634 -31.126144 132.110687 248 249 241
18.678347 51.815559 134.219849 248 226 211
18.492098 25.126829 131.543060 243 238 228
19.468126 63.105442 136.632004 121 96 75
18.327459 -31.818115 126.879135 183 120 66
18.800131 -33.896358 128.181915 196 206 206
19.890211 -12.419464 130.750671 245 244 240
20.270285 -14.327667 131.383606 253 255 255
20.744453 28.996155 134.298950 113 90 79
21.035839 -3.556666 132.364975 255 253 248
20.839249 25.207811 130.854675 33 16 5
20.839249 25.207811 130.854675 92 31 10
20.040586 71.025444 126.394943 17 13 13
21.509998 -10.964122 134.209427 13 12 5
19.998920 43.259693 124.593384 17 12 7
21.558779 4.493090 133.912277 254 252 255
11.545043 6.666887 47.338032 100 104 109
21.789196 3.680321 132.165649 27 11 1
21.573874 18.995924 130.238983 177 118 60
22.018475 18.039568 132.093445 69 25 0
22.018475 18.039568 132.093445 110 121 118
1.033630 2.137044 7.766283 143 116 87
22.666071 63.309208 132.889908 81 87 103
23.196613 -30.462374 135.203354 51 67 66
23.082056 -2.026795 133.445190 129 110 93
23.082056 -2.026795 133.445190 188 198 201
22.979689 75.231300 131.600388 92 57 33
23.343498 60.910133 131.850464 106 107 112
24.369047 -15.488033 135.412903 66 59 61
24.522257 60.594688 132.441696 20 16 13
24.423431 63.644650 131.850067 241 242 237
13.655330 27.938627 59.408142 153 137 122
25.010714 60.048515 133.409302 149 149 145
24.437798 63.893860 129.854309 244 233 222
24.890818 42.337269 130.905869 66 69 74
24.890818 42.337269 130.905869 66 69 74
25.488176 49.812107 133.429626 18 21 26
5.769073 -2.458348 12.505135 218 147 81
2.569068 -0.440076 9.110705 213 201 189
2.284895 2.271587 5.606946 128 151 136
3.478272 0.737935 9.147141 107 119 140
-43.778805 -25.776201 126.753296 149 151 131
25.138180 63.199669 129.245667 57 31 13
-47.130398 -0.541142 121.619629 9 21 17
9.254066 21.047501 125.804741 15 14 10
-9.279848 -26.732422 122.544464 49 39 35
-42.743484 -99.538124 155.762619 58 58 57
0.000000 0.000000 0.000000 255 0 0
4.890563 -0.994571 0.305323 255 0 0
